0.11895120 0.50000000 1.41825950 0.000978 0.999999 0.000978
-0.03950059 0.50000000 1.48107100 0.000978 0.999999 0.000978
0.31535310 0.50000000 1.39279962 0.000978 0.999999 0.000978
-0.27862573 0.50000000 1.43918669 0.000978 0.999999 0.000978
-0.04648614 0.50000000 1.33186913 0.000978 0.999999 0.000978
0.40718418 0.50000000 1.45646083 0.000978 0.999999 0.000978
0.14642024 0.50000000 1.44185328 0.000978 0.999999 0.000978
0.19737399 0.50000000 1.19562674 0.000978 0.999999 0.000978
-0.13979167 0.50000000 1.35969043 0.000978 0.999999 0.000978
-0.07069522 0.50000000 1.28059745 0.000978 0.999999 0.000978
0.07391778 0.50000000 1.30333722 0.000978 0.999999 0.000978
0.45913044 0.50000000 1.19908404 0.000978 0.999999 0.000978
0.35008931 0.50000000 1.18671560 0.000978 0.999999 0.000978
0.30224165 0.50000000 1.11733675 0.000978 0.999999 0.000978
0.11564481 0.50000000 1.20197606 0.000978 0.999999 0.000978
0.24090454 0.50000000 1.41994667 0.000978 0.999999 0.000978
0.01261219 0.50000000 1.46534181 0.000978 0.999999 0.000978
0.24198887 0.50000000 1.31746566 0.000978 0.999999 0.000978
0.23533645 0.50000000 1.41227353 0.000978 0.999999 0.000978
-0.42737490 0.50000000 1.48030496 0.000978 0.999999 0.000978
0.05834845 0.50000000 1.44147789 0.000978 0.999999 0.000978
0.30154413 0.50000000 1.45084465 0.000978 0.999999 0.000978
-0.01235485 0.50000000 1.28772652 0.000978 0.999999 0.000978
0.16318706 0.50000000 1.25840366 0.000978 0.999999 0.000978
0.39470568 0.50000000 1.24475968 0.000978 0.999999 0.000978
0.30390680 0.50000000 1.24382281 0.000978 0.999999 0.000978
0.35960618 0.50000000 1.36672592 0.000978 0.999999 0.000978
0.47725299 0.50000000 1.28474545 0.000978 0.999999 0.000978
0.04381442 0.50000000 1.23462152 0.000978 0.999999 0.000978
0.26408911 0.50000000 1.19244182 0.000978 0.999999 0.000978
0.28961363 0.50000000 1.37452412 0.000978 0.999999 0.000978
0.30073896 0.50000000 1.16304350 0.000978 0.999999 0.000978
0.12606180 0.50000000 1.25485063 0.000978 0.999999 0.000978
-0.11071146 0.50000000 1.35271871 0.000978 0.999999 0.000978
-0.05164689 0.50000000 1.33769751 0.000978 0.999999 0.000978
0.27876762 0.50000000 1.27215028 0.000978 0.999999 0.000978
0.27059790 0.50000000 1.44901848 0.000978 0.999999 0.000978
0.39624867 0.50000000 1.14492345 0.000978 0.999999 0.000978
-0.39582390 0.50000000 1.46856546 0.000978 0.999999 0.000978
0.47137403 0.50000000 1.47102726 0.000978 0.999999 0.000978
-0.11191398 0.50000000 1.46277130 0.000978 0.999999 0.000978
0.36956689 0.50000000 1.32909799 0.000978 0.999999 0.000978
0.29045516 0.50000000 1.25416982 0.000978 0.999999 0.000978
0.42242044 0.50000000 1.46169269 0.000978 0.999999 0.000978
0.48056549 0.50000000 1.42120922 0.000978 0.999999 0.000978
0.02415782 0.50000000 1.33696187 0.000978 0.999999 0.000978
-0.13206112 0.50000000 1.44860542 0.000978 0.999999 0.000978
0.11820567 0.50000000 1.24022508 0.000978 0.999999 0.000978
-0.34231228 0.50000000 1.44543052 0.000978 0.999999 0.000978
-0.05022347 0.50000000 1.41439366 0.000978 0.999999 0.000978
0.02139151 0.50000000 1.30418706 0.000978 0.999999 0.000978
0.38455296 0.50000000 1.39221394 0.000978 0.999999 0.000978
0.18988565 0.50000000 1.38643241 0.000978 0.999999 0.000978
0.22323081 0.50000000 1.25360548 0.000978 0.999999 0.000978
-0.09366870 0.50000000 1.38908720 0.000978 0.999999 0.000978
-0.03039813 0.50000000 1.41307771 0.000978 0.999999 0.000978
0.47992063 0.50000000 1.43499768 0.000978 0.999999 0.000978
-0.33585548 0.50000000 1.41273582 0.000978 0.999999 0.000978
0.00913709 0.50000000 1.22839010 0.000978 0.999999 0.000978
0.12231904 0.50000000 1.43137050 0.000978 0.999999 0.000978
0.41557452 0.50000000 1.21846461 0.000978 0.999999 0.000978
0.29398188 0.50000000 1.45576489 0.000978 0.999999 0.000978
-0.03062695 0.50000000 1.37766492 0.000978 0.999999 0.000978
0.35962385 0.50000000 1.21658444 0.000978 0.999999 0.000978
0.49717984 0.50000000 1.30797315 0.000978 0.999999 0.000978
0.18724632 0.50000000 1.30923808 0.000978 0.999999 0.000978
0.24931985 0.50000000 1.12143016 0.000978 0.999999 0.000978
-0.16616940 0.50000000 1.35108995 0.000978 0.999999 0.000978
0.29041985 0.50000000 1.37661779 0.000978 0.999999 0.000978
0.15200549 0.50000000 1.25840533 0.000978 0.999999 0.000978
0.04012662 0.50000000 1.28928363 0.000978 0.999999 0.000978
0.27856123 0.50000000 1.22725880 0.000978 0.999999 0.000978
0.21563238 0.50000000 1.19402337 0.000978 0.999999 0.000978
-0.06738472 0.50000000 1.34292090 0.000978 0.999999 0.000978
0.39100790 0.50000000 1.35690856 0.000978 0.999999 0.000978
-0.10833031 0.50000000 1.28875077 0.000978 0.999999 0.000978
0.07713237 0.50000000 1.40811813 0.000978 0.999999 0.000978
-0.20415264 0.50000000 1.39255619 0.000978 0.999999 0.000978
0.06817302 0.50000000 1.28693783 0.000978 0.999999 0.000978
0.20242620 0.50000000 1.36366665 0.000978 0.999999 0.000978
0.13489440 0.50000000 1.32270825 0.000978 0.999999 0.000978
-0.30522156 0.50000000 1.39540160 0.000978 0.999999 0.000978
-0.13329726 0.50000000 1.30799472 0.000978 0.999999 0.000978
0.27192926 0.50000000 1.45561194 0.000978 0.999999 0.000978
0.44748923 0.50000000 1.33197510 0.000978 0.999999 0.000978
0.49310508 0.50000000 1.16942930 0.000978 0.999999 0.000978
0.21092108 0.50000000 1.36875045 0.000978 0.999999 0.000978
0.27530873 0.50000000 1.37563181 0.000978 0.999999 0.000978
-0.36399293 0.50000000 1.45447314 0.000978 0.999999 0.000978
0.32430542 0.50000000 1.43486476 0.000978 0.999999 0.000978
0.30157393 0.50000000 1.42940557 0.000978 0.999999 0.000978
-0.11542296 0.50000000 1.32972693 0.000978 0.999999 0.000978
0.20945230 0.50000000 1.46188068 0.000978 0.999999 0.000978
0.43497387 0.50000000 1.42532527 0.000978 0.999999 0.000978
-0.19536757 0.50000000 1.43542051 0.000978 0.999999 0.000978
0.46003467 0.50000000 1.17999005 0.000978 0.999999 0.000978
0.45808771 0.50000000 1.28713763 0.000978 0.999999 0.000978
-0.05205482 0.50000000 1.39557469 0.000978 0.999999 0.000978
0.21674523 0.50000000 1.39616585 0.000978 0.999999 0.000978
-0.09213984 0.50000000 1.45768678 0.000978 0.999999 0.000978
0.31489292 0.50000000 1.31199789 0.000978 0.999999 0.000978
0.39709550 0.50000000 1.28001106 0.000978 0.999999 0.000978
0.12032887 0.50000000 1.20041645 0.000978 0.999999 0.000978
0.21482602 0.50000000 1.29719472 0.000978 0.999999 0.000978
-0.15437078 0.50000000 1.37266278 0.000978 0.999999 0.000978
0.44680324 0.50000000 1.37677789 0.000978 0.999999 0.000978
0.37047321 0.50000000 1.20346892 0.000978 0.999999 0.000978
0.29818404 0.50000000 1.15193677 0.000978 0.999999 0.000978
0.04117531 0.50000000 1.33664203 0.000978 0.999999 0.000978
-0.09300315 0.50000000 1.29218698 0.000978 0.999999 0.000978
0.33584988 0.50000000 1.16366386 0.000978 0.999999 0.000978
0.46829695 0.50000000 1.28061938 0.000978 0.999999 0.000978
0.15824935 0.50000000 1.16961956 0.000978 0.999999 0.000978
-0.25921494 0.50000000 1.48057663 0.000978 0.999999 0.000978
-0.17019451 0.50000000 1.32162714 0.000978 0.999999 0.000978
0.46835235 0.50000000 1.38318324 0.000978 0.999999 0.000978
0.33625510 0.50000000 1.26221800 0.000978 0.999999 0.000978
0.45864117 0.50000000 1.15964127 0.000978 0.999999 0.000978
-0.00329876 0.50000000 1.42562878 0.000978 0.999999 0.000978
-0.24890524 0.50000000 1.43445563 0.000978 0.999999 0.000978
0.37009615 0.50000000 1.47191203 0.000978 0.999999 0.000978
0.13183275 0.50000000 1.28777122 0.000978 0.999999 0.000978
0.20023361 0.50000000 1.43025470 0.000978 0.999999 0.000978
-0.41424203 0.50000000 1.47338200 0.000978 0.999999 0.000978
-0.00140929 0.50000000 1.42060781 0.000978 0.999999 0.000978
-0.35767025 0.50000000 1.41753662 0.000978 0.999999 0.000978
-0.04941082 0.50000000 1.38640356 0.000978 0.999999 0.000978
0.02367491 0.50000000 1.24312675 0.000978 0.999999 0.000978
-0.14983940 0.50000000 1.35454643 0.000978 0.999999 0.000978
0.34576246 0.50000000 1.41374922 0.000978 0.999999 0.000978
-0.04640776 0.50000000 1.26213706 0.000978 0.999999 0.000978
0.41570112 0.50000000 1.22886324 0.000978 0.999999 0.000978
0.05358443 0.50000000 1.21125865 0.000978 0.999999 0.000978
0.09013072 0.50000000 1.21374512 0.000978 0.999999 0.000978
0.45804438 0.50000000 1.29454839 0.000978 0.999999 0.000978
0.04526630 0.50000000 1.30787945 0.000978 0.999999 0.000978
-0.00399601 0.50000000 1.47528470 0.000978 0.999999 0.000978
0.08567387 0.50000000 1.28661001 0.000978 0.999999 0.000978
0.21134126 0.50000000 1.35525179 0.000978 0.999999 0.000978
0.11802521 0.50000000 1.29725850 0.000978 0.999999 0.000978
0.21304563 0.50000000 1.14689386 0.000978 0.999999 0.000978
0.41533899 0.50000000 1.37635732 0.000978 0.999999 0.000978
0.12136456 0.50000000 1.34946144 0.000978 0.999999 0.000978
0.24923834 0.50000000 1.33203781 0.000978 0.999999 0.000978
0.20042631 0.50000000 1.44896472 0.000978 0.999999 0.000978
0.16079512 0.50000000 1.46009779 0.000978 0.999999 0.000978
0.26452464 0.50000000 1.28305018 0.000978 0.999999 0.000978
0.12670091 0.50000000 1.21931911 0.000978 0.999999 0.000978
-0.02866644 0.50000000 1.47373724 0.000978 0.999999 0.000978
0.01924878 0.50000000 1.29615366 0.000978 0.999999 0.000978
0.38795510 0.50000000 1.21347332 0.000978 0.999999 0.000978
0.43060037 0.50000000 1.44270527 0.000978 0.999999 0.000978
0.05330995 0.50000000 1.35331964 0.000978 0.999999 0.000978
0.33190602 0.50000000 1.13113236 0.000978 0.999999 0.000978
0.19789591 0.50000000 1.22039139 0.000978 0.999999 0.000978
0.14370921 0.50000000 1.46387792 0.000978 0.999999 0.000978
0.02018481 0.50000000 1.47052717 0.000978 0.999999 0.000978
-0.17869407 0.50000000 1.46349084 0.000978 0.999999 0.000978
0.42216790 0.50000000 1.10478091 0.000978 0.999999 0.000978
0.42814609 0.50000000 1.38840854 0.000978 0.999999 0.000978
0.37058663 0.50000000 1.35545373 0.000978 0.999999 0.000978
0.23192674 0.50000000 1.41599512 0.000978 0.999999 0.000978
0.39332110 0.50000000 1.41237652 0.000978 0.999999 0.000978
0.32217431 0.50000000 1.32928360 0.000978 0.999999 0.000978
0.46122602 0.50000000 1.14167511 0.000978 0.999999 0.000978
0.23237836 0.50000000 1.14822805 0.000978 0.999999 0.000978
0.04215938 0.50000000 1.42473400 0.000978 0.999999 0.000978
-0.06511807 0.50000000 1.41438437 0.000978 0.999999 0.000978
0.32397473 0.50000000 1.07769191 0.000978 0.999999 0.000978
0.41027734 0.50000000 1.45677912 0.000978 0.999999 0.000978
0.42668626 0.50000000 1.10113239 0.000978 0.999999 0.000978
0.10543630 0.50000000 1.26341367 0.000978 0.999999 0.000978
-0.05680668 0.50000000 1.45375812 0.000978 0.999999 0.000978
0.09365454 0.50000000 1.46812725 0.000978 0.999999 0.000978
-0.10930628 0.50000000 1.47410738 0.000978 0.999999 0.000978
0.04894060 0.50000000 1.23142290 0.000978 0.999999 0.000978
0.27631760 0.50000000 1.12519372 0.000978 0.999999 0.000978
0.00337148 0.50000000 1.41192567 0.000978 0.999999 0.000978
0.30693144 0.50000000 1.27632666 0.000978 0.999999 0.000978
0.31730890 0.50000000 1.43986332 0.000978 0.999999 0.000978
0.30828032 0.50000000 1.19269419 0.000978 0.999999 0.000978
0.38549823 0.50000000 1.42308795 0.000978 0.999999 0.000978
-0.34619647 0.50000000 1.46769750 0.000978 0.999999 0.000978
-0.36011666 0.50000000 1.45540476 0.000978 0.999999 0.000978
0.10080686 0.50000000 1.26967442 0.000978 0.999999 0.000978
-0.04347956 0.50000000 1.38933098 0.000978 0.999999 0.000978
0.08087367 0.50000000 1.36051810 0.000978 0.999999 0.000978
0.29108953 0.50000000 1.30111969 0.000978 0.999999 0.000978
0.31196725 0.50000000 1.16782463 0.000978 0.999999 0.000978
0.01977766 0.50000000 1.39206481 0.000978 0.999999 0.000978
0.41846782 0.50000000 1.37072694 0.000978 0.999999 0.000978
0.14318672 0.50000000 1.39301705 0.000978 0.999999 0.000978
0.24829310 0.50000000 1.45333779 0.000978 0.999999 0.000978
-0.19312495 0.50000000 1.46322906 0.000978 0.999999 0.000978
0.18672246 0.50000000 1.18239760 0.000978 0.999999 0.000978
-0.13475215 0.50000000 1.45711315 0.000978 0.999999 0.000978
-0.33840269 0.50000000 1.45937431 0.000978 0.999999 0.000978
0.39355153 0.50000000 1.15538418 0.000978 0.999999 0.000978
0.30141860 0.50000000 1.10649920 0.000978 0.999999 0.000978
0.23695982 0.50000000 1.15157735 0.000978 0.999999 0.000978
0.41780591 0.50000000 1.09080052 0.000978 0.999999 0.000978
0.16361618 0.50000000 1.15798485 0.000978 0.999999 0.000978
0.43010584 0.50000000 1.23492599 0.000978 0.999999 0.000978
0.28038520 0.50000000 1.14338517 0.000978 0.999999 0.000978
0.22699863 0.50000000 1.43213332 0.000978 0.999999 0.000978
-0.05745107 0.50000000 1.30419815 0.000978 0.999999 0.000978
0.25635368 0.50000000 1.20509911 0.000978 0.999999 0.000978
0.35218346 0.50000000 1.36558199 0.000978 0.999999 0.000978
0.43799371 0.50000000 1.38496840 0.000978 0.999999 0.000978
-0.06027120 0.50000000 1.34048104 0.000978 0.999999 0.000978
0.10368550 0.50000000 1.31012833 0.000978 0.999999 0.000978
0.37784761 0.50000000 1.41066337 0.000978 0.999999 0.000978
-0.42328376 0.50000000 1.47472382 0.000978 0.999999 0.000978
0.47617111 0.50000000 1.44887137 0.000978 0.999999 0.000978
-0.35469323 0.50000000 1.46132016 0.000978 0.999999 0.000978
-0.35966834 0.50000000 1.40474534 0.000978 0.999999 0.000978
0.16582340 0.50000000 1.01452816 0.000978 0.999999 0.000978
-0.48901987 0.50000000 1.06701016 0.000978 0.999999 0.000978
0.08239332 0.50000000 1.16046488 0.000978 0.999999 0.000978
-0.38898510 0.50000000 1.05889118 0.000978 0.999999 0.000978
-0.34239486 0.50000000 1.19667566 0.000978 0.999999 0.000978
-0.10367981 0.50000000 1.16721296 0.000978 0.999999 0.000978
-0.01192395 0.50000000 1.02085876 0.000978 0.999999 0.000978
-0.23957424 0.50000000 1.09790194 0.000978 0.999999 0.000978
-0.44954795 0.50000000 1.12412381 0.000978 0.999999 0.000978
0.11067264 0.50000000 1.09755611 0.000978 0.999999 0.000978
-0.36454833 0.50000000 1.28126752 0.000978 0.999999 0.000978
-0.23807114 0.50000000 1.23763859 0.000978 0.999999 0.000978
-0.34162959 0.50000000 1.24840832 0.000978 0.999999 0.000978
-0.22271773 0.50000000 1.23128378 0.000978 0.999999 0.000978
-0.37859505 0.50000000 1.06239843 0.000978 0.999999 0.000978
-0.26002800 0.50000000 1.05809438 0.000978 0.999999 0.000978
-0.48238587 0.50000000 1.04248190 0.000978 0.999999 0.000978
0.28667113 0.50000000 1.04668736 0.000978 0.999999 0.000978
-0.32536140 0.50000000 1.18046165 0.000978 0.999999 0.000978
-0.31296641 0.50000000 1.09144115 0.000978 0.999999 0.000978
0.03439176 0.50000000 1.11390293 0.000978 0.999999 0.000978
-0.02671763 0.50000000 1.09728348 0.000978 0.999999 0.000978
-0.09237625 0.50000000 1.00534868 0.000978 0.999999 0.000978
0.06621600 0.50000000 0.99788463 0.000978 0.999999 0.000978
-0.14196390 0.50000000 1.24776220 0.000978 0.999999 0.000978
-0.49060097 0.50000000 1.00797093 0.000978 0.999999 0.000978
-0.37235516 0.50000000 1.09944677 0.000978 0.999999 0.000978
-0.38087863 0.50000000 1.30258083 0.000978 0.999999 0.000978
-0.42927977 0.50000000 1.12071955 0.000978 0.999999 0.000978
-0.03905075 0.50000000 1.02377224 0.000978 0.999999 0.000978
0.12119984 0.50000000 1.02423286 0.000978 0.999999 0.000978
-0.42929485 0.50000000 1.13033509 0.000978 0.999999 0.000978
-0.10040577 0.50000000 1.00149226 0.000978 0.999999 0.000978
-0.40321800 0.50000000 0.99741077 0.000978 0.999999 0.000978
-0.11831868 0.50000000 1.22253978 0.000978 0.999999 0.000978
-0.08610021 0.50000000 1.03607392 0.000978 0.999999 0.000978
-0.47151875 0.50000000 1.19120538 0.000978 0.999999 0.000978
0.02858296 0.50000000 1.00760114 0.000978 0.999999 0.000978
0.47654301 0.50000000 0.98824048 0.000978 0.999999 0.000978
-0.09834640 0.50000000 1.01369631 0.000978 0.999999 0.000978
0.24441735 0.50000000 1.10197198 0.000978 0.999999 0.000978
-0.35679731 0.50000000 1.32731199 0.000978 0.999999 0.000978
-0.26976326 0.50000000 1.33011377 0.000978 0.999999 0.000978
0.09519440 0.50000000 1.17086947 0.000978 0.999999 0.000978
0.04091832 0.50000000 1.04620636 0.000978 0.999999 0.000978
-0.16300550 0.50000000 1.27215695 0.000978 0.999999 0.000978
-0.49672788 0.50000000 0.99645925 0.000978 0.999999 0.000978
-0.11902919 0.50000000 1.17901003 0.000978 0.999999 0.000978
-0.34563795 0.50000000 1.07329559 0.000978 0.999999 0.000978
0.08960685 0.50000000 0.98861134 0.000978 0.999999 0.000978
0.04625216 0.50000000 1.12065256 0.000978 0.999999 0.000978
-0.12588184 0.50000000 0.99837065 0.000978 0.999999 0.000978
0.10153610 0.50000000 1.04480755 0.000978 0.999999 0.000978
-0.13340777 0.50000000 1.10338509 0.000978 0.999999 0.000978
-0.29924607 0.50000000 1.28666830 0.000978 0.999999 0.000978
-0.15466610 0.50000000 1.23707092 0.000978 0.999999 0.000978
-0.24946965 0.50000000 0.98947489 0.000978 0.999999 0.000978
0.03439367 0.50000000 1.09163880 0.000978 0.999999 0.000978
-0.21809876 0.50000000 1.03106856 0.000978 0.999999 0.000978
-0.37911439 0.50000000 1.03301883 0.000978 0.999999 0.000978
0.05184194 0.50000000 0.99678338 0.000978 0.999999 0.000978
-0.33818939 0.50000000 1.37069952 0.000978 0.999999 0.000978
0.32137039 0.50000000 1.00093544 0.000978 0.999999 0.000978
-0.14904284 0.50000000 1.30655909 0.000978 0.999999 0.000978
-0.27717832 0.50000000 1.21562147 0.000978 0.999999 0.000978
-0.20476800 0.50000000 1.25651836 0.000978 0.999999 0.000978
-0.32477498 0.50000000 1.30741298 0.000978 0.999999 0.000978
0.04901062 0.50000000 1.05562663 0.000978 0.999999 0.000978
-0.43230239 0.50000000 1.13048160 0.000978 0.999999 0.000978
-0.38026705 0.50000000 1.14940488 0.000978 0.999999 0.000978
-0.44836399 0.50000000 1.06895590 0.000978 0.999999 0.000978
-0.20418894 0.50000000 1.29428518 0.000978 0.999999 0.000978
-0.30617386 0.50000000 1.09169543 0.000978 0.999999 0.000978
-0.24022514 0.50000000 1.25666618 0.000978 0.999999 0.000978
-0.47418445 0.50000000 1.29581368 0.000978 0.999999 0.000978
-0.47258896 0.50000000 1.44797790 0.000978 0.999999 0.000978
0.08048436 0.50000000 1.17434037 0.000978 0.999999 0.000978
-0.19506842 0.50000000 1.00871360 0.000978 0.999999 0.000978
-0.40939334 0.50000000 1.26038742 0.000978 0.999999 0.000978
-0.37210849 0.50000000 1.21860325 0.000978 0.999999 0.000978
-0.48543566 0.50000000 1.34431112 0.000978 0.999999 0.000978
-0.48664835 0.50000000 1.19843411 0.000978 0.999999 0.000978
0.34619322 0.50000000 1.03177023 0.000978 0.999999 0.000978
-0.31300944 0.50000000 1.16194332 0.000978 0.999999 0.000978
-0.44602796 0.50000000 1.01273251 0.000978 0.999999 0.000978
-0.25662464 0.50000000 1.34740245 0.000978 0.999999 0.000978
-0.03285617 0.50000000 1.10910118 0.000978 0.999999 0.000978
0.11967855 0.50000000 1.01553476 0.000978 0.999999 0.000978
-0.42961213 0.50000000 1.25771940 0.000978 0.999999 0.000978
-0.35881513 0.50000000 1.31574547 0.000978 0.999999 0.000978
-0.32938182 0.50000000 1.31425095 0.000978 0.999999 0.000978
0.37937167 0.50000000 1.01987350 0.000978 0.999999 0.000978
-0.19889189 0.50000000 1.06647408 0.000978 0.999999 0.000978
-0.43577588 0.50000000 1.10385478 0.000978 0.999999 0.000978
-0.43810534 0.50000000 1.44611001 0.000978 0.999999 0.000978
-0.05432609 0.50000000 1.11752748 0.000978 0.999999 0.000978
0.14196554 0.50000000 1.10860872 0.000978 0.999999 0.000978
-0.27997422 0.50000000 1.10086310 0.000978 0.999999 0.000978
0.32019219 0.50000000 1.00590122 0.000978 0.999999 0.000978
-0.35323733 0.50000000 0.99742508 0.000978 0.999999 0.000978
-0.34580609 0.50000000 1.12840140 0.000978 0.999999 0.000978
-0.45370165 0.50000000 1.13327682 0.000978 0.999999 0.000978
-0.27180108 0.50000000 1.19035149 0.000978 0.999999 0.000978
-0.38408524 0.50000000 1.10940659 0.000978 0.999999 0.000978
-0.20704454 0.50000000 1.05211413 0.000978 0.999999 0.000978
-0.11882558 0.50000000 1.08734107 0.000978 0.999999 0.000978
-0.45787722 0.50000000 1.34626651 0.000978 0.999999 0.000978
-0.09891963 0.50000000 1.20804417 0.000978 0.999999 0.000978
0.16677174 0.50000000 1.11763120 0.000978 0.999999 0.000978
-0.46071750 0.50000000 1.46299887 0.000978 0.999999 0.000978
-0.37786987 0.50000000 1.13174975 0.000978 0.999999 0.000978
-0.16750473 0.50000000 1.13826799 0.000978 0.999999 0.000978
0.30934483 0.50000000 0.98544967 0.000978 0.999999 0.000978
-0.45139748 0.50000000 1.21405411 0.000978 0.999999 0.000978
-0.06036767 0.50000000 1.13503695 0.000978 0.999999 0.000978
0.20864294 0.50000000 0.98332250 0.000978 0.999999 0.000978
0.18231133 0.50000000 1.13518453 0.000978 0.999999 0.000978
0.18712857 0.50000000 1.00579417 0.000978 0.999999 0.000978
-0.39319006 0.50000000 1.40696716 0.000978 0.999999 0.000978
-0.02866961 0.50000000 1.00390613 0.000978 0.999999 0.000978
-0.15702210 0.50000000 1.05063033 0.000978 0.999999 0.000978
-0.29083747 0.50000000 1.12828779 0.000978 0.999999 0.000978
-0.24619813 0.50000000 1.05836070 0.000978 0.999999 0.000978
-0.19722050 0.50000000 1.19738770 0.000978 0.999999 0.000978
-0.45128572 0.50000000 1.39663398 0.000978 0.999999 0.000978
-0.32064423 0.50000000 1.17569280 0.000978 0.999999 0.000978
0.13086388 0.50000000 0.99801743 0.000978 0.999999 0.000978
0.09047151 0.50000000 1.16279244 0.000978 0.999999 0.000978
0.17006266 0.50000000 1.09098399 0.000978 0.999999 0.000978
0.16363201 0.50000000 1.00435185 0.000978 0.999999 0.000978
-0.49071661 0.50000000 1.21765697 0.000978 0.999999 0.000978
-0.04995283 0.50000000 1.13202453 0.000978 0.999999 0.000978
-0.07192495 0.50000000 1.25296140 0.000978 0.999999 0.000978
-0.18020707 0.50000000 1.03147507 0.000978 0.999999 0.000978
0.32467031 0.50000000 1.04750490 0.000978 0.999999 0.000978
-0.42734617 0.50000000 1.16309392 0.000978 0.999999 0.000978
-0.27282831 0.50000000 1.11529779 0.000978 0.999999 0.000978
-0.34357521 0.50000000 1.17098880 0.000978 0.999999 0.000978
-0.30210450 0.50000000 1.22397256 0.000978 0.999999 0.000978
-0.38476980 0.50000000 1.04086149 0.000978 0.999999 0.000978
-0.08812940 0.50000000 1.16091228 0.000978 0.999999 0.000978
-0.42067149 0.50000000 1.21111655 0.000978 0.999999 0.000978
0.23447695 0.50000000 1.03965473 0.000978 0.999999 0.000978
-0.36070326 0.50000000 1.26391470 0.000978 0.999999 0.000978
-0.42068657 0.50000000 1.07699549 0.000978 0.999999 0.000978
-0.18133658 0.50000000 1.28625464 0.000978 0.999999 0.000978
-0.16051060 0.50000000 1.03309119 0.000978 0.999999 0.000978
-0.43604130 0.50000000 1.38077629 0.000978 0.999999 0.000978
0.07171288 0.50000000 1.16522050 0.000978 0.999999 0.000978
0.15900975 0.50000000 1.01314843 0.000978 0.999999 0.000978
0.25078714 0.50000000 1.00030518 0.000978 0.999999 0.000978
-0.27489257 0.50000000 1.12359571 0.000978 0.999999 0.000978
-0.36062798 0.50000000 1.05268896 0.000978 0.999999 0.000978
-0.20299447 0.50000000 1.02544200 0.000978 0.999999 0.000978
-0.33036792 0.50000000 1.37170780 0.000978 0.999999 0.000978
0.04759032 0.50000000 1.18022692 0.000978 0.999999 0.000978
-0.39922145 0.50000000 1.21415818 0.000978 0.999999 0.000978
-0.39332211 0.50000000 1.35357797 0.000978 0.999999 0.000978
-0.39479035 0.50000000 1.42079878 0.000978 0.999999 0.000978
0.12521741 0.50000000 1.13794029 0.000978 0.999999 0.000978
-0.00047207 0.50000000 1.19154394 0.000978 0.999999 0.000978
-0.15577438 0.50000000 1.30785847 0.000978 0.999999 0.000978
-0.46552920 0.50000000 1.24541187 0.000978 0.999999 0.000978
0.20446417 0.50000000 1.04645813 0.000978 0.999999 0.000978
-0.02335221 0.50000000 1.10576224 0.000978 0.999999 0.000978
-0.45054984 0.50000000 1.07493198 0.000978 0.999999 0.000978
-0.23650384 0.50000000 1.02379274 0.000978 0.999999 0.000978
-0.49670708 0.50000000 1.42533278 0.000978 0.999999 0.000978
-0.16138822 0.50000000 1.18905163 0.000978 0.999999 0.000978
0.30133912 0.50000000 0.98835194 0.000978 0.999999 0.000978
-0.18486851 0.50000000 1.07992673 0.000978 0.999999 0.000978
-0.20721126 0.50000000 1.30025995 0.000978 0.999999 0.000978
-0.39074725 0.50000000 1.39314198 0.000978 0.999999 0.000978
0.25314730 0.50000000 1.07504475 0.000978 0.999999 0.000978
-0.13972729 0.50000000 1.06565690 0.000978 0.999999 0.000978
-0.23715019 0.50000000 1.18656087 0.000978 0.999999 0.000978
-0.36348519 0.50000000 1.16348982 0.000978 0.999999 0.000978
0.15564181 0.50000000 1.09799945 0.000978 0.999999 0.000978
-0.35925683 0.50000000 1.06576288 0.000978 0.999999 0.000978
-0.22283664 0.50000000 1.17159331 0.000978 0.999999 0.000978
-0.26782346 0.50000000 0.99339545 0.000978 0.999999 0.000978
-0.25717789 0.50000000 1.35428166 0.000978 0.999999 0.000978
-0.32351673 0.50000000 1.20503891 0.000978 0.999999 0.000978
0.02043438 0.50000000 1.15930116 0.000978 0.999999 0.000978
-0.40892127 0.50000000 1.27593827 0.000978 0.999999 0.000978
-0.45325804 0.50000000 1.40527344 0.000978 0.999999 0.000978
-0.21450740 0.50000000 1.23682725 0.000978 0.999999 0.000978
-0.48333570 0.50000000 1.20955420 0.000978 0.999999 0.000978
-0.21784016 0.50000000 1.17445469 0.000978 0.999999 0.000978
0.05805787 0.50000000 1.13811874 0.000978 0.999999 0.000978
-0.23647743 0.50000000 1.22147644 0.000978 0.999999 0.000978
-0.10619256 0.50000000 1.26691496 0.000978 0.999999 0.000978
-0.06956597 0.50000000 1.06180227 0.000978 0.999999 0.000978
0.20765194 0.50000000 0.99803007 0.000978 0.999999 0.000978
-0.01284400 0.50000000 1.04528630 0.000978 0.999999 0.000978
-0.31514701 0.50000000 1.18236375 0.000978 0.999999 0.000978
0.09901574 0.50000000 1.09096813 0.000978 0.999999 0.000978
-0.11143351 0.50000000 1.11582220 0.000978 0.999999 0.000978
0.18604250 0.50000000 1.07153702 0.000978 0.999999 0.000978
-0.27782953 0.50000000 1.08292294 0.000978 0.999999 0.000978
-0.06702611 0.50000000 1.21899545 0.000978 0.999999 0.000978
-0.40155405 0.50000000 1.17752671 0.000978 0.999999 0.000978
-0.31059253 0.50000000 1.38565445 0.000978 0.999999 0.000978
-0.49045539 0.50000000 1.16015744 0.000978 0.999999 0.000978
-0.47509700 0.50000000 1.21828675 0.000978 0.999999 0.000978
0.21715406 0.50000000 1.05530727 0.000978 0.999999 0.000978
-0.28281000 0.50000000 1.03462362 0.000978 0.999999 0.000978
-0.22844210 0.50000000 1.13960171 0.000978 0.999999 0.000978
-0.43574184 0.50000000 1.39373887 0.000978 0.999999 0.000978
-0.40763131 0.50000000 1.30697858 0.000978 0.999999 0.000978
0.11982951 0.50000000 0.99785256 0.000978 0.999999 0.000978
-0.36400715 0.50000000 1.00873375 0.000978 0.999999 0.000978
-0.46651259 0.50000000 1.40792012 0.000978 0.999999 0.000978
-0.33358550 0.50000000 1.39539325 0.000978 0.999999 0.000978
-0.08285084 0.50000000 1.16428375 0.000978 0.999999 0.000978
-0.21372432 0.50000000 1.24642658 0.000978 0.999999 0.000978
-0.20648640 0.50000000 1.19243824 0.000978 0.999999 0.000978
-0.13667053 0.50000000 1.27222598 0.000978 0.999999 0.000978
0.24075745 0.50000000 1.05027342 0.000978 0.999999 0.000978
0.01025824 0.50000000 1.01846349 0.000978 0.999999 0.000978
-0.07110167 0.50000000 1.13953578 0.000978 0.999999 0.000978
-0.43214729 0.50000000 1.11597025 0.000978 0.999999 0.000978
-0.20681947 0.50000000 1.12719154 0.000978 0.999999 0.000978
-0.48170906 0.50000000 1.23244798 0.000978 0.999999 0.000978
-0.05914921 0.50000000 1.00333023 0.000978 0.999999 0.000978
-0.17244372 0.50000000 1.22658050 0.000978 0.999999 0.000978
-0.03785760 0.50000000 0.99542582 0.000978 0.999999 0.000978
0.33080578 0.50000000 1.02172685 0.000978 0.999999 0.000978
-0.23585923 0.50000000 1.00840878 0.000978 0.999999 0.000978
-0.42324391 0.50000000 1.28032649 0.000978 0.999999 0.000978
-0.19376379 0.50000000 1.16638565 0.000978 0.999999 0.000978
-0.45072228 0.50000000 1.22199059 0.000978 0.999999 0.000978
-0.45938948 0.50000000 1.01191807 0.000978 0.999999 0.000978
-0.14852254 0.50000000 1.06990719 0.000978 0.999999 0.000978
-0.36587048 0.50000000 1.34852421 0.000978 0.999999 0.000978
-0.03473529 0.50000000 1.22642004 0.000978 0.999999 0.000978
-0.01100233 0.50000000 1.19974291 0.000978 0.999999 0.000978
-0.06125850 0.50000000 1.00224316 0.000978 0.999999 0.000978
0.04421788 0.50000000 1.17994630 0.000978 0.999999 0.000978
-0.18385369 0.50000000 1.28079796 0.000978 0.999999 0.000978
0.26479191 0.50000000 1.01471186 0.000978 0.999999 0.000978
-0.48981002 0.50000000 1.24280894 0.000978 0.999999 0.000978
-0.24323189 0.50000000 1.27833819 0.000978 0.999999 0.000978
0.05349553 0.50000000 1.20611703 0.000978 0.999999 0.000978
-0.18662010 0.50000000 0.98289287 0.000978 0.999999 0.000978
-0.26703316 0.50000000 1.26253903 0.000978 0.999999 0.000978
-0.39577860 0.50000000 1.32306445 0.000978 0.999999 0.000978
-0.14743733 0.50000000 1.28079045 0.000978 0.999999 0.000978
-0.48250395 0.50000000 1.46172512 0.000978 0.999999 0.000978
-0.31068790 0.50000000 1.32412696 0.000978 0.999999 0.000978
-0.41901642 0.50000000 1.41345966 0.000978 0.999999 0.000978
-0.21729298 0.50000000 1.00106537 0.000978 0.999999 0.000978
-0.42688471 0.50000000 1.34984314 0.000978 0.999999 0.000978
-0.12452871 0.50000000 1.03205836 0.000978 0.999999 0.000978
-0.10064170 0.50000000 1.11209393 0.000978 0.999999 0.000978
0.27712831 0.50000000 1.07495451 0.000978 0.999999 0.000978
-0.36453986 0.50000000 1.26255643 0.000978 0.999999 0.000978
-0.45807898 0.50000000 1.44167900 0.000978 0.999999 0.000978
-0.30700335 0.50000000 1.31433916 0.000978 0.999999 0.000978
-0.00799929 0.50000000 1.02877653 0.000978 0.999999 0.000978
-0.11627260 0.50000000 1.26574886 0.000978 0.999999 0.000978
-0.38341898 0.50000000 1.37792838 0.000978 0.999999 0.000978
0.43825340 0.50000000 0.98343050 0.000978 0.999999 0.000978
-0.20895848 0.50000000 1.10203946 0.000978 0.999999 0.000978
-0.31367794 0.50000000 1.12576687 0.000978 0.999999 0.000978
0.34330490 0.50000000 1.03399050 0.000978 0.999999 0.000978
-0.06293824 0.50000000 1.17594123 0.000978 0.999999 0.000978
0.01411188 0.50000000 1.04629183 0.000978 0.999999 0.000978
0.11252674 0.50000000 1.12317359 0.000978 0.999999 0.000978
0.24021527 0.50000000 1.03267717 0.000978 0.999999 0.000978
-0.00702056 0.50000000 1.11558867 0.000978 0.999999 0.000978
-0.10650632 0.50000000 1.12060058 0.000978 0.999999 0.000978
-0.32893026 0.50000000 1.10757852 0.000978 0.999999 0.000978
-0.32488525 0.50000000 1.08559072 0.000978 0.999999 0.000978
-0.48094159 0.50000000 1.20642459 0.000978 0.999999 0.000978
-0.25524080 0.50000000 1.07778907 0.000978 0.999999 0.000978
-0.13775748 0.50000000 1.02690518 0.000978 0.999999 0.000978
-0.42449546 0.50000000 1.24192429 0.000978 0.999999 0.000978
-0.10020743 0.50000000 1.06557381 0.000978 0.999999 0.000978
-0.34060013 0.50000000 1.32173443 0.000978 0.999999 0.000978
-0.24183056 0.50000000 1.10792792 0.000978 0.999999 0.000978
-0.24937993 0.50000000 1.15495181 0.000978 0.999999 0.000978
-0.05281526 0.50000000 1.20584309 0.000978 0.999999 0.000978
-0.13590653 0.50000000 1.02555811 0.000978 0.999999 0.000978
0.09157947 0.50000000 1.14935172 0.000978 0.999999 0.000978
0.32816190 0.50000000 1.02213907 0.000978 0.999999 0.000978
0.05588856 0.50000000 1.08550203 0.000978 0.999999 0.000978
-0.32865909 0.50000000 1.27744150 0.000978 0.999999 0.000978
-0.16818452 0.50000000 1.23349833 0.000978 0.999999 0.000978
-0.19964719 0.50000000 1.18163204 0.000978 0.999999 0.000978
-0.25637454 0.50000000 1.18756402 0.000978 0.999999 0.000978
-0.25364336 0.50000000 1.04198575 0.000978 0.999999 0.000978
-0.12281875 0.50000000 1.00957155 0.000978 0.999999 0.000978
-0.26162398 0.50000000 1.14234149 0.000978 0.999999 0.000978
0.46169642 0.42339283 1.08998132 0.894688 -0.446689 0.001310
0.40762767 0.31525534 1.17543101 0.894688 -0.446689 0.001310
0.39563888 0.29127780 1.23509026 0.894688 -0.446689 0.001310
0.48972929 0.47945857 1.07234776 0.894688 -0.446689 0.001310
0.32252395 0.14504787 1.17373812 0.894688 -0.446689 0.001310
0.30970043 0.11940083 0.99884164 0.894688 -0.446689 0.001310
0.37330723 0.24661443 1.09753871 0.894688 -0.446689 0.001310
0.31381184 0.12762365 1.28926790 0.894688 -0.446689 0.001310
0.45000026 0.40000051 1.42985964 0.894688 -0.446689 0.001310
0.46401983 0.42803967 1.38116324 0.894688 -0.446689 0.001310
0.43317807 0.36635613 1.07790589 0.894688 -0.446689 0.001310
0.17785555 -0.14428890 1.12648821 0.894688 -0.446689 0.001310
0.41328165 0.32656330 1.33104920 0.894688 -0.446689 0.001310
0.48805037 0.47610074 1.22763276 0.894688 -0.446689 0.001310
0.47992566 0.45985132 1.07916629 0.894688 -0.446689 0.001310
0.25918436 0.01836875 1.14425051 0.894688 -0.446689 0.001310
0.20279676 -0.09440649 1.05044603 0.894688 -0.446689 0.001310
0.36139405 0.22278813 1.15147078 0.894688 -0.446689 0.001310
0.16911578 -0.16176844 1.00372088 0.894688 -0.446689 0.001310
0.30111217 0.10222438 1.03149056 0.894688 -0.446689 0.001310
0.32355893 0.14711788 1.26119936 0.894688 -0.446689 0.001310
0.43966860 0.37933722 1.34869206 0.894688 -0.446689 0.001310
0.30942965 0.11885926 1.01575685 0.894688 -0.446689 0.001310
0.35516733 0.21033469 1.11019504 0.894688 -0.446689 0.001310
0.43349260 0.36698520 1.22955322 0.894688 -0.446689 0.001310
0.28541172 0.07082343 1.03532684 0.894688 -0.446689 0.001310
0.17156354 -0.15687293 1.09586716 0.894688 -0.446689 0.001310
0.43303412 0.36606824 1.02330911 0.894688 -0.446689 0.001310
0.17820328 -0.14359343 1.09358656 0.894688 -0.446689 0.001310
0.24454227 -0.01091546 1.11216140 0.894688 -0.446689 0.001310
0.44306022 0.38612041 1.05796790 0.894688 -0.446689 0.001310
0.19808677 -0.10382646 1.13797426 0.894688 -0.446689 0.001310
0.20611623 -0.08776754 1.17607808 0.894688 -0.446689 0.001310
0.17361242 -0.15277517 1.06064928 0.894688 -0.446689 0.001310
0.33281460 0.16562921 1.20051861 0.894688 -0.446689 0.001310
0.49634868 0.49269736 1.45589960 0.894688 -0.446689 0.001310
0.32381600 0.14763197 1.05735111 0.894688 -0.446689 0.001310
0.31282189 0.12564379 1.19928706 0.894688 -0.446689 0.001310
0.39315248 0.28630495 1.19666648 0.894688 -0.446689 0.001310
0.46967721 0.43935442 1.05825973 0.894688 -0.446689 0.001310
0.38763008 0.27526015 1.09752214 0.894688 -0.446689 0.001310
0.20831272 -0.08337456 0.99394906 0.894688 -0.446689 0.001310
0.38666379 0.27332759 1.07024407 0.894688 -0.446689 0.001310
0.43686163 0.37372327 1.20121062 0.894688 -0.446689 0.001310
0.17047739 -0.15904522 1.11326671 0.894688 -0.446689 0.001310
0.24779812 -0.00440377 1.18947899 0.894688 -0.446689 0.001310
0.26120216 0.02240434 1.14359236 0.894688 -0.446689 0.001310
0.46116966 0.42233932 1.25162113 0.894688 -0.446689 0.001310
0.48313767 0.46627530 1.30023372 0.894688 -0.446689 0.001310
0.12758771 -0.24482459 1.03932822 0.894688 -0.446689 0.001310
0.38946748 0.27893496 1.20688856 0.894688 -0.446689 0.001310
0.44962820 0.39925644 1.05350626 0.894688 -0.446689 0.001310
0.22127569 -0.05744863 1.09441888 0.894688 -0.446689 0.001310
0.47853968 0.45707938 1.43868494 0.894688 -0.446689 0.001310
0.30024803 0.10049602 1.01025558 0.894688 -0.446689 0.001310
0.48558584 0.47117165 1.45819473 0.894688 -0.446689 0.001310
0.48076946 0.46153888 1.41025233 0.894688 -0.446689 0.001310
0.40836772 0.31673545 1.17491841 0.894688 -0.446689 0.001310
0.35096157 0.20192313 1.04413629 0.894688 -0.446689 0.001310
0.13271597 -0.23456806 0.99058068 0.894688 -0.446689 0.001310
0.16833779 -0.16332442 1.06387281 0.894688 -0.446689 0.001310
0.42819214 0.35638428 0.99516451 0.894688 -0.446689 0.001310
0.06666002 -0.36667997 1.03511310 0.894688 -0.446689 0.001310
0.48367739 0.46735477 1.09059775 0.894688 -0.446689 0.001310
0.47646034 0.45292068 1.19571173 0.894688 -0.446689 0.001310
0.35290319 0.20580637 1.12841725 0.894688 -0.446689 0.001310
0.28189981 0.06379959 1.13287103 0.894688 -0.446689 0.001310
0.47801003 0.45602003 1.11072147 0.894688 -0.446689 0.001310
0.31831157 0.13662314 1.08700681 0.894688 -0.446689 0.001310
0.43119329 0.36238661 1.22616959 0.894688 -0.446689 0.001310
0.49749267 0.49498534 1.35227585 0.894688 -0.446689 0.001310
0.34710550 0.19421104 1.14834511 0.894688 -0.446689 0.001310
0.43967742 0.37935483 1.37976301 0.894688 -0.446689 0.001310
0.22679967 -0.04640067 1.18420064 0.894688 -0.446689 0.001310
0.33514398 0.17028800 1.07558346 0.894688 -0.446689 0.001310
0.41843122 0.33686247 1.36009383 0.894688 -0.446689 0.001310
0.47211227 0.44422451 1.18002987 0.894688 -0.446689 0.001310
0.29429018 0.08858037 1.10698497 0.894688 -0.446689 0.001310
0.25327447 0.00654894 1.16789079 0.894688 -0.446689 0.001310
0.49043605 0.48087212 1.12735939 0.894688 -0.446689 0.001310
0.23283547 -0.03432906 1.20017910 0.894688 -0.446689 0.001310
0.40683505 0.31367010 1.38969529 0.894688 -0.446689 0.001310
0.36775452 0.23550904 1.22566843 0.894688 -0.446689 0.001310
0.45112941 0.40225881 1.40879333 0.894688 -0.446689 0.001310
0.39231187 0.28462371 1.34039354 0.894688 -0.446689 0.001310
0.45332915 0.40665829 1.09472466 0.894688 -0.446689 0.001310
0.14578441 -0.20843118 1.04054999 0.894688 -0.446689 0.001310
0.25801826 0.01603651 1.17109537 0.894688 -0.446689 0.001310
0.34998846 0.19997689 0.99656701 0.894688 -0.446689 0.001310
0.24158651 -0.01682699 1.10389578 0.894688 -0.446689 0.001310
0.40497923 0.30995843 1.04007971 0.894688 -0.446689 0.001310
0.07131526 -0.35736948 1.01119828 0.894688 -0.446689 0.001310
0.39576456 0.29152912 1.36932790 0.894688 -0.446689 0.001310
0.39629829 0.29259658 1.11555934 0.894688 -0.446689 0.001310
0.46355417 0.42710832 1.14166856 0.894688 -0.446689 0.001310
0.22080344 -0.05839312 1.10341513 0.894688 -0.446689 0.001310
0.20742783 -0.08514434 1.10925281 0.894688 -0.446689 0.001310
0.13224307 -0.23551387 1.05081189 0.894688 -0.446689 0.001310
0.48377514 0.46755028 1.05523717 0.894688 -0.446689 0.001310
0.17995721 -0.14008558 1.06489384 0.894688 -0.446689 0.001310
0.35946369 0.21892741 1.29086542 0.894688 -0.446689 0.001310
0.43440250 0.36880499 1.26207983 0.894688 -0.446689 0.001310
0.38650966 0.27301928 1.23342896 0.894688 -0.446689 0.001310
0.17727479 -0.14545041 1.01203477 0.894688 -0.446689 0.001310
0.27727669 0.05455339 1.22416937 0.894688 -0.446689 0.001310
0.40301961 0.30603921 1.03575313 0.894688 -0.446689 0.001310
0.18139437 -0.13721126 1.01830006 0.894688 -0.446689 0.001310
0.33368349 0.16736698 1.06461883 0.894688 -0.446689 0.001310
0.28108308 0.06216615 1.15421617 0.894688 -0.446689 0.001310
0.45022258 0.40044513 1.38535678 0.894688 -0.446689 0.001310
0.46357840 0.42715684 1.35851133 0.894688 -0.446689 0.001310
0.40768814 0.31537628 1.31551611 0.894688 -0.446689 0.001310
0.03720331 -0.42559338 1.01203692 0.894688 -0.446689 0.001310
0.39397395 0.28794789 1.03296101 0.894688 -0.446689 0.001310
0.42332104 0.34664208 1.31066751 0.894688 -0.446689 0.001310
0.06944239 -0.36111522 1.02667952 0.894688 -0.446689 0.001310
0.38271722 0.26543444 1.30448020 0.894688 -0.446689 0.001310
0.47532552 0.45065105 1.38511658 0.894688 -0.446689 0.001310
0.49998453 0.49996907 1.44445300 0.894688 -0.446689 0.001310
0.16987616 -0.16024768 1.01164508 0.894688 -0.446689 0.001310
0.42305863 0.34611726 1.25743032 0.894688 -0.446689 0.001310
0.30646294 0.11292586 1.24088049 0.894688 -0.446689 0.001310
0.31057841 0.12115681 1.08743274 0.894688 -0.446689 0.001310
0.20277253 -0.09445494 1.13401544 0.894688 -0.446689 0.001310
0.41310233 0.32620466 1.24220276 0.894688 -0.446689 0.001310
0.35345739 0.20691481 1.29121852 0.894688 -0.446689 0.001310
0.37610590 0.25221184 0.99126995 0.894688 -0.446689 0.001310
0.46228856 0.42457712 1.20226371 0.894688 -0.446689 0.001310
0.34291011 0.18582022 1.14950848 0.894688 -0.446689 0.001310
0.25002325 0.00004652 1.19118297 0.894688 -0.446689 0.001310
0.15679353 -0.18641293 1.10170007 0.894688 -0.446689 0.001310
0.44917667 0.39835334 1.12601125 0.894688 -0.446689 0.001310
0.23403773 -0.03192455 1.19369054 0.894688 -0.446689 0.001310
0.22878081 -0.04243839 1.14341128 0.894688 -0.446689 0.001310
0.05886295 -0.38227409 1.02834404 0.894688 -0.446689 0.001310
0.11926839 -0.26146322 1.06655753 0.894688 -0.446689 0.001310
0.33435640 0.16871279 1.29784548 0.894688 -0.446689 0.001310
0.14415166 -0.21169668 0.99586272 0.894688 -0.446689 0.001310
0.43756446 0.37512892 1.34244108 0.894688 -0.446689 0.001310
0.38918522 0.27837044 1.16534424 0.894688 -0.446689 0.001310
0.10855144 -0.28289711 1.06730986 0.894688 -0.446689 0.001310
0.23261032 -0.03477937 1.14723837 0.894688 -0.446689 0.001310
0.37079194 0.24158388 1.12719381 0.894688 -0.446689 0.001310
0.45468223 0.40936446 0.99275410 0.894688 -0.446689 0.001310
0.28212380 0.06424761 1.05483842 0.894688 -0.446689 0.001310
0.18731692 -0.12536615 1.15185833 0.894688 -0.446689 0.001310
0.29986751 0.09973502 1.08631766 0.894688 -0.446689 0.001310
0.46944451 0.43888903 1.18165207 0.894688 -0.446689 0.001310
0.24440181 -0.01119637 1.16863489 0.894688 -0.446689 0.001310
0.23979878 -0.02040243 1.00102258 0.894688 -0.446689 0.001310
0.31811535 0.13623071 1.27818370 0.894688 -0.446689 0.001310
0.06769106 -0.36461788 1.04446232 0.894688 -0.446689 0.001310
0.49821439 0.49642879 1.38370466 0.894688 -0.446689 0.001310
0.46919528 0.43839058 1.44859493 0.894688 -0.446689 0.001310
0.44453081 0.38906163 1.09385157 0.894688 -0.446689 0.001310
0.48236355 0.46472710 1.08557034 0.894688 -0.446689 0.001310
0.40509182 0.31018364 1.12224710 0.894688 -0.446689 0.001310
0.33308625 0.16617247 1.05681837 0.894688 -0.446689 0.001310
0.43408841 0.36817682 1.09412384 0.894688 -0.446689 0.001310
0.25387025 0.00774047 1.09508920 0.894688 -0.446689 0.001310
0.44547537 0.39095071 1.29859412 0.894688 -0.446689 0.001310
0.27636760 0.05273524 1.08303106 0.894688 -0.446689 0.001310
0.22903430 -0.04193139 1.20466542 0.894688 -0.446689 0.001310
0.31568819 0.13137639 0.99813390 0.894688 -0.446689 0.001310
0.15916833 -0.18166333 1.10739136 0.894688 -0.446689 0.001310
0.20720401 -0.08559197 1.18035018 0.894688 -0.446689 0.001310
0.38140064 0.26280129 1.31080008 0.894688 -0.446689 0.001310
0.19543982 -0.10912037 1.09575737 0.894688 -0.446689 0.001310
0.02562654 -0.44874692 0.98589611 0.894688 -0.446689 0.001310
0.05653366 -0.38693267 1.02944946 0.894688 -0.446689 0.001310
0.36469448 0.22938892 1.29948080 0.894688 -0.446689 0.001310
0.49443400 0.48886800 1.45921624 0.894688 -0.446689 0.001310
0.15570211 -0.18859577 1.11197102 0.894688 -0.446689 0.001310
0.29104620 0.08209237 1.02113402 0.894688 -0.446689 0.001310
0.29433218 0.08866435 1.05791759 0.894688 -0.446689 0.001310
0.25234905 0.00469810 1.19426191 0.894688 -0.446689 0.001310
0.48130348 0.46260697 1.37065816 0.894688 -0.446689 0.001310
0.34886515 0.19773033 1.02155709 0.894688 -0.446689 0.001310
0.20266235 -0.09467530 1.09819067 0.894688 -0.446689 0.001310
0.37748533 0.25497070 1.13642383 0.894688 -0.446689 0.001310
0.29782277 0.09564552 1.13563514 0.894688 -0.446689 0.001310
0.23938137 -0.02123725 1.07018530 0.894688 -0.446689 0.001310
0.10130855 -0.29738289 1.02839804 0.894688 -0.446689 0.001310
0.35624480 0.21248960 1.24111569 0.894688 -0.446689 0.001310
0.31312388 0.12624773 1.25107050 0.894688 -0.446689 0.001310
0.43626672 0.37253347 1.28473449 0.894688 -0.446689 0.001310
0.30052096 0.10104191 1.17764366 0.894688 -0.446689 0.001310
0.42730784 0.35461569 1.34656322 0.894688 -0.446689 0.001310
0.27245963 0.04491928 1.24157488 0.894688 -0.446689 0.001310
0.31920034 0.13840064 1.06302726 0.894688 -0.446689 0.001310
0.35563135 0.21126270 1.18764222 0.894688 -0.446689 0.001310
0.28992975 0.07985947 1.10997033 0.894688 -0.446689 0.001310
0.26855215 0.03710431 1.04803157 0.894688 -0.446689 0.001310
0.46433297 0.42866594 1.44632626 0.894688 -0.446689 0.001310
0.15793672 -0.18412656 1.12900257 0.894688 -0.446689 0.001310
0.43066847 0.36133695 1.25157404 0.894688 -0.446689 0.001310
0.45424974 0.40849945 1.40286565 0.894688 -0.446689 0.001310
0.49181786 0.48363575 1.37452042 0.894688 -0.446689 0.001310
0.13997307 -0.22005385 1.06756651 0.894688 -0.446689 0.001310
0.47318920 0.44637841 1.35530829 0.894688 -0.446689 0.001310
0.35626239 0.21252480 1.15747154 0.894688 -0.446689 0.001310
0.49770319 0.49540636 1.39857197 0.894688 -0.446689 0.001310
0.33146584 0.16293171 1.15130675 0.894688 -0.446689 0.001310
0.31089109 0.12178215 1.08948886 0.894688 -0.446689 0.001310
0.21094587 -0.07810825 1.02031648 0.894688 -0.446689 0.001310
0.41390499 0.32780999 1.22651708 0.894688 -0.446689 0.001310
0.35994649 0.21989295 1.08658397 0.894688 -0.446689 0.001310
0.21989053 -0.06021893 0.99648821 0.894688 -0.446689 0.001310
0.36566460 0.23132923 1.32918453 0.894688 -0.446689 0.001310
0.07919112 -0.34161776 1.02538311 0.894688 -0.446689 0.001310
0.21457332 -0.07085335 1.04913831 0.894688 -0.446689 0.001310
0.14559299 -0.20881402 1.03669024 0.894688 -0.446689 0.001310
0.34546328 0.19092652 1.04423320 0.894688 -0.446689 0.001310
0.20867425 -0.08265150 1.08042049 0.894688 -0.446689 0.001310
0.11230505 -0.27538991 1.06408072 0.894688 -0.446689 0.001310
0.34200266 0.18400532 1.13183928 0.894688 -0.446689 0.001310
0.25991610 0.01983219 1.07972097 0.894688 -0.446689 0.001310
0.46888119 0.43776238 1.12838304 0.894688 -0.446689 0.001310
0.30465308 0.10930616 1.19261754 0.894688 -0.446689 0.001310
0.23663408 -0.02673185 1.14010692 0.894688 -0.446689 0.001310
0.25653723 0.01307446 1.14551938 0.894688 -0.446689 0.001310
0.40569055 0.31138113 1.29710042 0.894688 -0.446689 0.001310
0.32099748 0.14199498 1.11969793 0.894688 -0.446689 0.001310
0.28949285 0.07898569 1.21689892 0.894688 -0.446689 0.001310
0.36797002 0.23594004 1.00588620 0.894688 -0.446689 0.001310
0.38085470 0.26170939 1.06065047 0.894688 -0.446689 0.001310
0.31677100 0.13354200 1.26661789 0.894688 -0.446689 0.001310
0.17516959 -0.14966083 1.11644495 0.894688 -0.446689 0.001310
0.40916973 0.31833950 1.15197289 0.894688 -0.446689 0.001310
0.22250858 -0.05498284 1.13563538 0.894688 -0.446689 0.001310
0.24631369 -0.00737262 1.12890327 0.894688 -0.446689 0.001310
0.32404390 0.14808780 1.09972942 0.894688 -0.446689 0.001310
0.13337043 -0.23325914 1.02771139 0.894688 -0.446689 0.001310
0.45682204 0.41364408 1.24862301 0.894688 -0.446689 0.001310
0.25270802 0.00541604 1.01481974 0.894688 -0.446689 0.001310
0.47133419 0.44266838 1.18955159 0.894688 -0.446689 0.001310
0.48246294 0.46492589 1.32258487 0.894688 -0.446689 0.001310
0.42464817 0.34929633 1.19468260 0.894688 -0.446689 0.001310
0.26447055 0.02894109 1.08872676 0.894688 -0.446689 0.001310
0.36716029 0.23432058 1.30716455 0.894688 -0.446689 0.001310
0.33344126 0.16688251 1.22601140 0.894688 -0.446689 0.001310
0.42662531 0.35325062 1.20028496 0.894688 -0.446689 0.001310
0.31589147 0.13178295 1.13756037 0.894688 -0.446689 0.001310
0.27456531 0.04913062 1.21891701 0.894688 -0.446689 0.001310
0.31747270 0.13494539 1.22055876 0.894688 -0.446689 0.001310
0.03187019 -0.43625963 0.98387325 0.894688 -0.446689 0.001310
0.37691501 0.25383002 1.31347990 0.894688 -0.446689 0.001310
0.42547294 0.35094589 1.07840538 0.894688 -0.446689 0.001310
0.45830634 0.41661268 1.18943131 0.894688 -0.446689 0.001310
0.21263537 -0.07472926 1.02745163 0.894688 -0.446689 0.001310
0.38279542 0.26559085 1.34428418 0.894688 -0.446689 0.001310
0.38772267 0.27544534 1.06251502 0.894688 -0.446689 0.001310
0.28080800 0.06161600 1.25054133 0.894688 -0.446689 0.001310
0.40757936 0.31515872 1.29130471 0.894688 -0.446689 0.001310
0.16677520 -0.16644961 1.14593410 0.894688 -0.446689 0.001310
0.42920965 0.35841927 1.02101660 0.894688 -0.446689 0.001310
0.23339292 -0.03321415 1.01743543 0.894688 -0.446689 0.001310
0.27206889 0.04413778 1.23233318 0.894688 -0.446689 0.001310
0.23412919 -0.03174162 1.04975426 0.894688 -0.446689 0.001310
0.34474367 0.18948737 0.99816358 0.894688 -0.446689 0.001310
0.27563819 0.05127639 1.18778789 0.894688 -0.446689 0.001310
0.26695260 0.03390521 1.02358496 0.894688 -0.446689 0.001310
0.46261325 0.42522654 1.36641622 0.894688 -0.446689 0.001310
0.39261365 0.28522730 1.05123913 0.894688 -0.446689 0.001310
0.14045408 -0.21909183 1.04904377 0.894688 -0.446689 0.001310
0.07575476 -0.34849048 1.04301202 0.894688 -0.446689 0.001310
0.34663731 0.19327465 1.04400814 0.894688 -0.446689 0.001310
0.41570741 0.33141485 1.03606427 0.894688 -0.446689 0.001310
0.47688520 0.45377037 1.19462359 0.894688 -0.446689 0.001310
0.28437734 0.06875464 1.14953446 0.894688 -0.446689 0.001310
0.40022209 0.30044419 1.13778841 0.894688 -0.446689 0.001310
0.29878575 0.09757146 1.14813650 0.894688 -0.446689 0.001310
0.47874290 0.45748580 1.27652562 0.894688 -0.446689 0.001310
0.26498657 0.02997318 1.08390403 0.894688 -0.446689 0.001310
0.35528803 0.21057606 1.30546260 0.894688 -0.446689 0.001310
0.40733707 0.31467414 1.28083909 0.894688 -0.446689 0.001310
0.38333526 0.26667053 1.32086015 0.894688 -0.446689 0.001310
0.44498131 0.38996264 1.26534140 0.894688 -0.446689 0.001310
0.35868669 0.21737334 1.32565498 0.894688 -0.446689 0.001310
