-0.1484357037 0.4460480331 -0.2031285927
-0.3935163935 0.4285885353 0.2870327870
-0.2363920594 0.3476148887 -0.0272158813
-0.2800069653 0.3219320286 0.0600139307
-0.0017197541 0.0763193977 -0.4965604918
-0.1932955818 0.2350473559 -0.1134088365
-0.0425069187 0.4473842030 -0.4149861627
-0.4590883507 0.4926525732 0.4181767014
-0.0508375573 0.3986198663 -0.3983248854
-0.1534658076 0.2825684930 -0.1930683848
-0.1745358671 0.4823994592 -0.1509282658
-0.4511774706 0.4778178274 0.4023549413
-0.0946778179 0.1709429939 -0.3106443642
-0.2903785472 0.3118119195 0.0807570943
-0.2092924698 0.2870698658 -0.0814150604
-0.4245838505 0.4489517473 0.3491677011
-0.2435593698 0.4751999751 -0.0128812604
-0.3305128593 0.3362769177 0.1610257186
-0.0376003762 0.4318964345 -0.4247992476
-0.0391402831 0.1533330572 -0.4217194339
-0.2190792347 0.4577503634 -0.0618415306
-0.1085792686 0.4548408348 -0.2828414627
-0.1126533310 0.1281497379 -0.2746933381
-0.1829642340 0.3006730522 -0.1340715321
-0.0851791949 0.2024689779 -0.3296416102
-0.2336696452 0.2438885182 -0.0326607096
-0.0976862220 0.4075012122 -0.3046275560
-0.0027721209 0.1509966881 -0.4944557583
-0.2007518447 0.2773329996 -0.0984963105
-0.0333690686 0.2083930562 -0.4332618628
-0.3898732891 0.4725181883 0.2797465782
-0.1494628304 0.1655063662 -0.2010743393
-0.0210393550 0.0464631971 -0.4579212900
-0.1455573697 0.4717357244 -0.2088852606
-0.4477957101 0.4684742492 0.3955914203
-0.0814384655 0.2955212368 -0.3371230690
-0.0786722323 0.4231703134 -0.3426555355
-0.3530711794 0.3715942906 0.2061423589
-0.2612386819 0.2810890141 0.0224773638
-0.2202618051 0.3724222165 -0.0594763899
-0.3157238315 0.4030320069 0.1314476629
-0.2063454028 0.3716816660 -0.0873091943
-0.3928525633 0.4089313163 0.2857051265
-0.2681616891 0.4734649570 0.0363233783
-0.0150195034 0.1972091474 -0.4699609932
-0.0454850976 0.2281513615 -0.4090298048
-0.1089925035 0.3640193743 -0.2820149930
-0.3912209508 0.4024653243 0.2824419015
-0.0012608796 0.4270558486 -0.4974782408
-0.1882840643 0.4130480709 -0.1234318715
-0.0145679799 0.4650513629 -0.4708640403
-0.0627882570 0.1405590490 -0.3744234860
-0.0694828348 0.3116087015 -0.3610343304
-0.0803317449 0.4173805186 -0.3393365103
-0.0583948142 0.3997649105 -0.3832103716
-0.0547601872 0.4862964288 -0.3904796257
-0.2846060436 0.3612298383 0.0692120871
-0.0144245410 0.1313487406 -0.4711509180
-0.1311240544 0.2718798222 -0.2377518911
-0.4130225030 0.4316378127 0.3260450060
-0.0665107887 0.2839476168 -0.3669784225
-0.2351223958 0.4344449988 -0.0297552083
-0.0035184236 0.2190292032 -0.4929631528
-0.1495878271 0.2950361456 -0.2008243458
-0.1968546842 0.3100160206 -0.1062906317
-0.2635874602 0.2923982159 0.0271749204
-0.0629875040 0.3617517952 -0.3740249921
-0.0058228086 0.0287837629 -0.4883543828
-0.3277452268 0.4276894944 0.1554904535
-0.4745289686 0.4910317180 0.4490579372
-0.1916298189 0.2234030520 -0.1167403621
-0.1754288887 0.2098136481 -0.1491422226
-0.1275695429 0.2222081827 -0.2448609141
-0.1143400874 0.2153777159 -0.2713198252
-0.0261372164 0.3325448726 -0.4477255672
-0.2262090308 0.2607955205 -0.0475819384
-0.1378318981 0.3458243459 -0.2243362038
-0.3887789895 0.4467350926 0.2775579789
-0.0911621861 0.3621396750 -0.3176756278
-0.2989948046 0.4459279458 0.0979896091
-0.1493471520 0.2605100658 -0.2013056961
-0.0667980147 0.0869960342 -0.3664039706
-0.0296342249 0.3070545006 -0.4407315502
-0.2782340514 0.3567498605 0.0564681029
-0.1778353736 0.2864750780 -0.1443292528
-0.1141724950 0.2931678485 -0.2716550100
-0.2389081404 0.3984002694 -0.0221837192
-0.2716249392 0.3139493901 0.0432498785
-0.1461743388 0.3058694501 -0.2076513225
-0.0102982478 0.0280492984 -0.4794035044
-0.3471605931 0.4763913362 0.1943211862
-0.0321715933 0.2981782318 -0.4356568133
-0.1365852647 0.2489601893 -0.2268294706
-0.0333829175 0.4585224502 -0.4332341651
-0.1603667644 0.3350382009 -0.1792664711
-0.2158466193 0.2219925182 -0.0683067614
-0.2709721053 0.4018102193 0.0419442105
-0.0771930570 0.3594110348 -0.3456138860
-0.1601380448 0.2856886049 -0.1797239104
-0.1572679410 0.4785049376 -0.1854641181
-0.2156374474 0.3861229774 -0.0687251052
-0.2082982056 0.3401076240 -0.0834035888
-0.0705478736 0.1589955772 -0.3589042528
-0.0994903528 0.1841804491 -0.3010192944
-0.1153399677 0.4007233283 -0.2693200646
-0.1693898511 0.2215628557 -0.1612202978
-0.2281662120 0.3697715997 -0.0436675760
-0.1478157777 0.3168948069 -0.2043684445
-0.1373097077 0.2667345054 -0.2253805847
-0.0289028866 0.3658605697 -0.4421942268
-0.1567974549 0.2160260366 -0.1864050902
-0.1204427774 0.4786503713 -0.2591144452
-0.0426836739 0.2170148777 -0.4146326521
-0.4174696989 0.4186981034 0.3349393979
-0.0843976820 0.2157848892 -0.3312046360
-0.2273839456 0.4993244301 -0.0452321089
-0.2987283964 0.3856965533 0.0974567928
-0.4688243371 0.4948149653 0.4376486742
-0.0938894039 0.1337334843 -0.3122211923
-0.0638987085 0.3905496936 -0.3722025829
-0.2766633161 0.4751829932 0.0533266321
-0.3557130541 0.4071574805 0.2114261081
-0.2862895007 0.3225381255 0.0725790015
-0.0953962408 0.4111855267 -0.3092075183
-0.2926826087 0.4194264987 0.0853652175
-0.1626817476 0.3645763404 -0.1746365048
-0.3978121123 0.4441826811 0.2956242247
-0.1313797760 0.3486516745 -0.2372404480
-0.0114390617 0.4063546097 -0.4771218766
-0.0614307460 0.4614772483 -0.3771385080
-0.0330895248 0.4222695617 -0.4338209503
-0.0476469034 0.3272652069 -0.4047061932
-0.2204975377 0.4049329831 -0.0590049246
-0.1298192790 0.4232351113 -0.2403614419
-0.1687468263 0.3541393726 -0.1625063474
-0.0186466508 0.1960998270 -0.4627066984
-0.2129910896 0.3845426309 -0.0740178208
-0.3695405628 0.4992059446 0.2390811257
-0.0186444640 0.0718139961 -0.4627110720
-0.0567467519 0.0765652208 -0.3865064963
-0.2308997902 0.2847211913 -0.0382004197
-0.1782153278 0.2065874964 -0.1435693444
-0.1994856613 0.4807702996 -0.1010286773
-0.2439920897 0.3326660541 -0.0120158207
-0.1912329737 0.3478976997 -0.1175340526
-0.0188159514 0.4625157227 -0.4623680972
-0.0891927705 0.4887346153 -0.3216144590
-0.1229168972 0.1970144184 -0.2541662056
-0.1204112349 0.1429631397 -0.2591775301
-0.0722774938 0.1960063830 -0.3554450125
-0.2445423678 0.4185703446 -0.0109152643
-0.0944262921 0.1458532214 -0.3111474158
-0.0012640953 0.0350157314 -0.4974718094
-0.3767020922 0.4052604787 0.2534041844
-0.4738583186 0.4907947995 0.4477166373
-0.2381711783 0.3522293704 -0.0236576434
-0.0196784465 0.2548312317 -0.4606431070
-0.0651713620 0.1507621107 -0.3696572760
-0.0388208171 0.4380250704 -0.4223583657
-0.0816516383 0.4929834137 -0.3366967235
-0.0996313302 0.1137559036 -0.3007373397
-0.3062753840 0.4594654493 0.1125507679
-0.1171139092 0.2128722863 -0.2657721815
-0.0217121940 0.4416615872 -0.4565756119
-0.2952818505 0.3758693399 0.0905637009
-0.0558091821 0.1929499324 -0.3883816358
-0.0249544032 0.1994609747 -0.4500911936
-0.1598331866 0.3421999795 -0.1803336269
-0.1706552714 0.3976697414 -0.1586894573
-0.1269305261 0.4658363653 -0.2461389478
-0.3069495359 0.3184848405 0.1138990718
-0.0048675972 0.0333863775 -0.4902648056
-0.3320841451 0.4544421703 0.1641682903
-0.1416624817 0.4734183852 -0.2166750367
-0.1010320292 0.4900649494 -0.2979359416
-0.1138991109 0.1537260104 -0.2722017782
-0.0194032880 0.4009499410 -0.4611934241
-0.3482293042 0.4978056044 0.1964586085
-0.0738794345 0.2453823378 -0.3522411310
-0.0217460168 0.4074648285 -0.4565079663
-0.0037767929 0.3523454825 -0.4924464142
-0.1603981344 0.3194152290 -0.1792037311
-0.2806228878 0.3189320776 0.0612457756
-0.1345794386 0.2788415470 -0.2308411229
-0.3023527603 0.3407944466 0.1047055206
-0.3562147942 0.4285994851 0.2124295885
-0.4721281460 0.4969696984 0.4442562919
-0.1583949003 0.3287191714 -0.1832101994
-0.1987514869 0.3824521194 -0.1024970262
-0.0522203336 0.3107493469 -0.3955593327
-0.3882865125 0.4139418244 0.2765730249
-0.0380987434 0.3431728574 -0.4238025132
-0.0715639522 0.1128815039 -0.3568720957
-0.0830468541 0.3779567586 -0.3339062918
-0.2531143902 0.4564753661 0.0062287803
-0.0103503445 0.4913441556 -0.4792993110
-0.0394322382 0.3254980621 -0.4211355236
-0.2370924513 0.2542942725 -0.0258150973
-0.3241165290 0.4956341068 0.1482330579
-0.0231361076 0.0647230532 -0.4537277847
-0.1063357632 0.4351476478 -0.2873284735
-0.1397088095 0.3214197236 -0.2205823810
-0.3974800170 0.4720432610 0.2949600339
-0.1645334799 0.4993336600 -0.1709330403
-0.2457423146 0.2782386367 -0.0085153709
-0.1885259267 0.2314334615 -0.1229481467
-0.4001404842 0.4705921952 0.3002809684
-0.0711838340 0.1949611411 -0.3576323320
-0.1921037557 0.2770867516 -0.1157924886
-0.0479530369 0.2170684171 -0.4040939262
-0.1515386866 0.2721182128 -0.1969226268
-0.3569348306 0.3737140913 0.2138696612
-0.0042729589 0.2730615639 -0.4914540823
-0.1292606230 0.3640081360 -0.2414787539
-0.2504985352 0.3757045289 0.0009970704
-0.4197500196 0.4499700451 0.3395000391
-0.0600656215 0.1013960059 -0.3798687571
-0.0268571968 0.2775227024 -0.4462856063
-0.0382224797 0.0628116861 -0.4235550406
-0.0447708480 0.1360259848 -0.4104583040
-0.1570153244 0.1659538322 -0.1859693512
-0.2334073870 0.4179794953 -0.0331852260
-0.1654232443 0.4857183213 -0.1691535113
-0.1789204976 0.1898483772 -0.1421590049
-0.0115505356 0.1180642929 -0.4768989287
-0.0437268192 0.1067369650 -0.4125463617
-0.2442553825 0.2905958043 -0.0114892350
-0.1147558305 0.3151239449 -0.2704883390
-0.1320703120 0.3840935380 -0.2358593760
-0.0421554945 0.4556673955 -0.4156890110
-0.0533057143 0.4747239611 -0.3933885713
-0.2572203574 0.3670994541 0.0144407147
-0.1956168332 0.2914707819 -0.1087663336
-0.1396339679 0.2104991260 -0.2207320643
-0.3574748007 0.4543275900 0.2149496015
-0.0640686908 0.1153586608 -0.3718626184
-0.1016539846 0.3210447112 -0.2966920308
-0.3413587534 0.4394951489 0.1827175068
-0.0088001336 0.1590504731 -0.4823997328
-0.2920338892 0.3989201947 0.0840677784
-0.3352658491 0.4688387599 0.1705316983
-0.1153385576 0.3532438452 -0.2693228848
-0.4200557027 0.4605155490 0.3401114054
-0.1225473553 0.2844365337 -0.2549052893
-0.2532698922 0.2732510636 0.0065397844
-0.2581687575 0.3613046715 0.0163375149
-0.1672639735 0.2573873215 -0.1654720529
0.0470482460 0.1358605838 -0.4059035080
0.1906146275 0.0384265030 -0.1187707450
0.3771257086 0.0761185218 0.2542514172
0.0442970797 0.2842994238 -0.4114058406
0.4456458242 0.0352674480 0.3912916485
0.3376015127 0.0026934757 0.1752030254
0.0018916014 0.3838464238 -0.4962167972
0.0584578279 0.2615642367 -0.3830843441
0.3226501972 0.0342721481 0.1453003944
0.4195201558 0.0539257071 0.3390403117
0.0356539906 0.2167684137 -0.4286920187
0.3341645982 0.1592777019 0.1683291964
0.1512458392 0.3484832653 -0.1975083216
0.1389494850 0.0079894162 -0.2221010301
0.1130446180 0.1397111911 -0.2739107639
0.1593779334 0.1471157607 -0.1812441333
0.3872862241 0.0284515385 0.2745724481
0.0015304464 0.3767296708 -0.4969391073
0.1054348957 0.0117807833 -0.2891302086
0.0067830602 0.2900909820 -0.4864338796
0.1285181316 0.0554569503 -0.2429637368
0.3596657628 0.1218887261 0.2193315257
0.0379051793 0.0523125667 -0.4241896414
0.0848440072 0.3084659068 -0.3303119856
0.0599134328 0.3887474703 -0.3801731344
0.1176635309 0.0551911921 -0.2646729383
0.0925645524 0.0112049262 -0.3148708952
0.3351512615 0.0417503037 0.1703025231
0.4788845707 0.0063690423 0.4577691414
0.0359412535 0.2397020667 -0.4281174930
0.1668408403 0.1852821761 -0.1663183194
0.1347635423 0.1472477490 -0.2304729154
0.1844974379 0.1889243617 -0.1310051242
0.1673025503 0.0596620222 -0.1653948995
0.1958462971 0.3032605193 -0.1083074057
0.3079214456 0.1199013337 0.1158428912
0.0812795477 0.3158542075 -0.3374409046
0.0656559094 0.2628761872 -0.3686881813
0.3326416511 0.0526921919 0.1652833022
0.2816291353 0.1349027920 0.0632582706
0.0978593254 0.2578954476 -0.3042813492
0.1545654286 0.0925237240 -0.1908691429
0.2618605106 0.1578625978 0.0237210212
0.4080065910 0.0449969867 0.3160131820
0.3844733798 0.0998877300 0.2689467596
0.0906496194 0.0897811658 -0.3187007613
0.3470599761 0.1267139480 0.1941199522
0.1689461703 0.2923258680 -0.1621076593
0.2708874175 0.1402393785 0.0417748350
0.0006237408 0.4732222768 -0.4987525184
0.0496547007 0.1451173850 -0.4006905985
0.2888381489 0.0402300566 0.0776762979
0.0837356758 0.1654042183 -0.3325286483
0.1837394556 0.0180674613 -0.1325210888
0.3333712486 0.0737806688 0.1667424972
0.1373688690 0.2850704230 -0.2252622620
0.3969226119 0.0484932060 0.2938452237
0.2906071886 0.0800782717 0.0812143772
0.1500351453 0.2443562223 -0.1999297094
0.2622570340 0.1179562054 0.0245140680
0.0377643147 0.1993718593 -0.4244713706
0.0127375416 0.4254448138 -0.4745249168
0.1158184877 0.3153947141 -0.2683630246
0.1062019176 0.0693241695 -0.2875961648
0.0102963625 0.0573564129 -0.4794072750
0.3985873712 0.0238571901 0.2971747424
0.3163292045 0.0765212814 0.1326584090
0.0660575873 0.0691818087 -0.3678848255
0.2876056270 0.2000299434 0.0752112541
0.2273861007 0.0459970107 -0.0452277986
0.3276117552 0.0195233513 0.1552235104
0.3736509314 0.1157526281 0.2473018628
0.3195872780 0.1777632943 0.1391745559
0.0994029455 0.2861856933 -0.3011941089
0.4158071530 0.0786811668 0.3316143061
0.2510205821 0.0504610060 0.0020411643
0.3929286553 0.0204548854 0.2858573106
0.0015677504 0.4114911305 -0.4968644992
0.3235239773 0.1618813103 0.1470479546
0.2388921733 0.1411785546 -0.0222156534
0.1831161139 0.0166201990 -0.1337677722
0.2776454357 0.0779397952 0.0552908714
0.0681580483 0.2203880041 -0.3636839035
0.0358041959 0.1876753608 -0.4283916082
0.0056620965 0.4671474585 -0.4886758071
0.0786173964 0.0420644816 -0.3427652072
0.1525402074 0.2848427404 -0.1949195851
0.2298459803 0.1723988559 -0.0403080393
0.1916787548 0.1763556125 -0.1166424905
0.2487503899 0.0161937859 -0.0024992203
0.2606576745 0.0661399004 0.0213153491
0.3621700561 0.0279238701 0.2243401123
0.0893136486 0.2687781567 -0.3213727028
0.0773833362 0.0036233899 -0.3452333277
0.0013654839 0.2621853156 -0.4972690323
0.2100862728 0.1587041569 -0.0798274544
0.1927471895 0.1716451289 -0.1145056209
0.1297254397 0.2962491835 -0.2405491207
0.1165422970 0.2849904018 -0.2669154061
0.2907359568 0.0953077989 0.0814719137
0.0012874656 0.0446014974 -0.4974250688
0.1704136244 0.0097597420 -0.1591727512
0.0448736681 0.4397531872 -0.4102526637
0.0580823085 0.3887551612 -0.3838353830
0.3622601119 0.1294779807 0.2245202238
0.0092204588 0.3129734863 -0.4815590825
0.0665564927 0.0310640137 -0.3668870145
0.2386079396 0.2148134846 -0.0227841209
0.1041683218 0.0371952351 -0.2916633564
0.0712792119 0.3581112257 -0.3574415763
0.0235300879 0.3739480716 -0.4529398243
0.3547786333 0.0447124715 0.2095572666
0.2779659492 0.1843544294 0.0559318983
0.1827696866 0.1221594297 -0.1344606268
0.2555691995 0.0862393368 0.0111383990
0.0021433461 0.4210735588 -0.4957133079
0.3669089835 0.1199275357 0.2338179669
0.0580936764 0.0877010074 -0.3838126472
0.3609065235 0.0182267693 0.2218130469
0.0283621310 0.1997894987 -0.4432757381
0.1086582455 0.0982451415 -0.2826835090
0.1834607109 0.2224334349 -0.1330785782
0.0086540924 0.2526845748 -0.4826918153
0.1826727496 0.2818983702 -0.1346545009
0.1640492734 0.1262301491 -0.1719014531
0.2875800482 0.0471417936 0.0751600964
0.1045868194 0.1697626470 -0.2908263612
0.2630727610 0.1571806304 0.0261455221
0.3335857678 0.0146968717 0.1671715355
0.2704520037 0.1614363959 0.0409040074
0.3735057355 0.0060776526 0.2470114711
0.0862822917 0.1638359337 -0.3274354165
0.0286452232 0.1954374803 -0.4427095536
0.3639955989 0.0234934692 0.2279911977
0.0154175964 0.3352969948 -0.4691648072
0.0148513757 0.2926471540 -0.4702972485
0.0030132434 0.3033856624 -0.4939735132
0.0044931891 0.0676635468 -0.4910136218
0.0173063817 0.4199314585 -0.4653872367
0.1270588298 0.1655251226 -0.2458823403
0.1925015535 0.1031025166 -0.1149968930
0.2697001135 0.1233152725 0.0394002269
0.2100106901 0.2655123902 -0.0799786198
0.0696775481 0.1228180961 -0.3606449038
0.0066222413 0.1130650503 -0.4867555175
0.0566095141 0.2043710848 -0.3867809717
0.0315511735 0.4138321196 -0.4368976529
0.2164661369 0.0291614338 -0.0670677263
0.0139906010 0.2341791037 -0.4720187981
0.1867763247 0.1077650831 -0.1264473507
0.0206127794 0.1344147471 -0.4587744411
0.0413648209 0.0692065521 -0.4172703583
0.0648001767 0.2030685674 -0.3703996465
0.0825665612 0.3809923150 -0.3348668776
0.1077141464 0.2261933347 -0.2845717072
0.0151989333 0.1177511746 -0.4696021334
0.3350255590 0.0433619368 0.1700511181
0.1612114902 0.2344901414 -0.1775770196
0.2242974723 0.0347112970 -0.0514050554
0.0238613285 0.0930338209 -0.4522773431
0.1824693805 0.0776185976 -0.1350612391
0.4564913110 0.0080529229 0.4129826219
0.0505752026 0.1561808562 -0.3988495948
0.3162314675 0.0689625781 0.1324629351
0.1343267178 0.1189588160 -0.2313465645
0.0653043403 0.2912343142 -0.3693913193
0.0883413865 0.1541579853 -0.3233172270
0.3081353145 0.0827008084 0.1162706290
0.2620218235 0.1960627180 0.0240436470
0.2885218819 0.0852286987 0.0770437639
0.1405823516 0.2079654459 -0.2188352967
0.1346969879 0.2185140764 -0.2306060242
0.1260983173 0.1301178571 -0.2478033653
0.0894885200 0.3894737359 -0.3210229600
0.4268507927 0.0642006280 0.3537015854
0.1890892686 0.1870047323 -0.1218214628
0.3248212596 0.1279237691 0.1496425192
0.3752471544 0.0961508359 0.2504943088
0.0025144379 0.3076097830 -0.4949711242
0.3517625178 0.0107997394 0.2035250357
0.2877487031 0.1482367991 0.0754974061
0.3849616062 0.0333110918 0.2699232123
0.0413682480 0.3715174892 -0.4172635040
0.2252509424 0.1986819360 -0.0494981153
0.0696532247 0.2877806116 -0.3606935506
0.2167747924 0.2760453267 -0.0664504152
0.0650402605 0.2445400749 -0.3699194790
0.4488215096 0.0372684774 0.3976430192
0.2561816235 0.0143997439 0.0123632470
0.4224124362 0.0645374107 0.3448248724
0.1449895465 0.1584229962 -0.2100209070
0.1794904566 0.0268482856 -0.1410190868
0.2365658165 0.1349084130 -0.0268683669
0.1362112627 0.0656438805 -0.2275774746
0.0107839984 0.4512613588 -0.4784320033
0.0651283651 0.3279636527 -0.3697432698
0.2229656387 0.0865374181 -0.0540687226
0.1188290632 0.1991722681 -0.2623418737
0.2516921525 0.1605024419 0.0033843050
0.3493337327 0.0305365706 0.1986674654
0.0973318149 0.1715472707 -0.3053363702
0.3866543872 0.0745122228 0.2733087744
0.3130594090 0.1609177340 0.1261188180
0.1668208192 0.2054070413 -0.1663583616
0.0798725890 0.2375164165 -0.3402548220
0.3341754786 0.0454839298 0.1683509573
0.3783696918 0.0006200960 0.2567393835
0.0655071683 0.4025325240 -0.3689856633
0.3740478820 0.0195674109 0.2480957640
0.1899603334 0.1003969801 -0.1200793332
0.2354355101 0.0482677688 -0.0291289799
0.2392193554 0.1107491100 -0.0215612892
0.4393792835 0.0278462157 0.3787585670
0.1379881539 0.2354851042 -0.2240236921
0.0842010391 0.0276238416 -0.3315979217
0.2728684199 0.1548555703 0.0457368397
0.0594420972 0.1235706414 -0.3811158055
0.3721971204 0.0693743358 0.2443942409
0.2953302629 0.0706039782 0.0906605258
0.2887381836 0.1469742517 0.0774763671
0.0573619786 0.4037912767 -0.3852760429
0.3581558108 0.0245721150 0.2163116216
0.1931253555 0.1532055531 -0.1137492891
0.3703569017 0.0342196010 0.2407138035
0.0066595610 0.4858117016 -0.4866808780
0.0813557566 0.1360907744 -0.3372884869
0.1895824140 0.1893260622 -0.1208351720
0.1734937007 0.0397522125 -0.1530125986
0.1114655384 0.0810682606 -0.2770689231
0.0809418394 0.0142680318 -0.3381163212
0.1107518929 0.2614844475 -0.2784962142
0.1642565724 0.0173746304 -0.1714868553
0.0890423416 0.2765782130 -0.3219153169
0.4091751071 0.0456716390 0.3183502142
0.0122318780 0.2372867429 -0.4755362439
0.1272180401 0.1177673169 -0.2455639199
0.1010225709 0.3107163392 -0.2979548582
0.2760309549 0.1102518254 0.0520619098
0.1299013526 0.1395726661 -0.2401972948
0.2762777557 0.1112573320 0.0525555115
0.1271350031 0.1223568882 -0.2457299938
0.2733533825 0.0436039062 0.0467067650
0.0435030709 0.1290617908 -0.4129938583
0.3112629736 0.1484589586 0.1225259472
0.0985578713 0.1847307554 -0.3028842575
0.1220256941 0.1149477440 -0.2559486117
0.3426537995 0.1537649403 0.1853075990
0.0126105446 0.1556825278 -0.4747789109
0.2077786178 0.0910885359 -0.0844427643
0.1348727727 0.1050081309 -0.2302544547
0.0023684517 0.3324573645 -0.4952630965
0.3359136174 0.1396477438 0.1718272348
0.0400367708 0.3376319779 -0.4199264585
0.3407033462 0.0885929720 0.1814066924
0.0693133280 0.3497132546 -0.3613733441
0.0793242341 0.0089898046 -0.3413515318
0.4436308222 0.0124135885 0.3872616443
0.2955332292 0.0348162271 0.0910664584
0.1978546698 0.1696986787 -0.1042906604
0.1885479380 0.2501134921 -0.1229041240
0.3140208136 0.1441074342 0.1280416272
0.1366647456 0.2098672681 -0.2266705088
0.1940588505 0.1096335358 -0.1118822991
0.1383592627 0.1377824956 -0.2232814747
0.0115557051 0.1453629963 -0.4768885898
0.2202647911 0.1147638105 -0.0594704177
0.0114902316 0.3116961044 -0.4770195367
0.2045709732 0.1632617816 -0.0908580536
0.1891589104 0.2040782334 -0.1216821793
0.1594819184 0.3065679304 -0.1810361632
0.2834479744 0.0445328925 0.0668959489
0.2914320711 0.1445423706 0.0828641422
0.0331483556 0.2282251622 -0.4337032887
0.0336430912 0.0923237187 -0.4327138177
0.0429765473 0.2265012643 -0.4140469054
0.0076713115 0.2754138282 -0.4846573770
0.3452026191 0.0705079995 0.1904052382
0.1364682674 0.2242845842 -0.2270634652
0.1222229239 0.3533598908 -0.2555541522
0.0384129996 0.3095189846 -0.4231740008
0.2951454588 0.1115208893 0.0902909176
0.0745308524 0.3780203959 -0.3509382952
0.1317424393 0.1120410722 -0.2365151214
0.2803119375 0.0502382633 0.0606238751
0.3134021084 0.1011147043 0.1268042168
0.0780854857 0.2119835245 -0.3438290286
0.1291347516 0.2572960899 -0.2417304967
0.2069333129 0.2835373390 -0.0861333741
0.0437743452 0.2293893194 -0.4124513096
0.0386473438 0.3252357892 -0.4227053125
0.2278926748 0.0038675756 -0.0442146505
0.1976813463 0.2829279059 -0.1046373074
0.0120608024 0.2404688792 -0.4758783951
0.3692273898 0.0161745172 0.2384547796
0.2742906731 0.1798519784 0.0485813463
0.0420545055 0.0032285139 -0.4158909890
0.0788775654 0.3840576001 -0.3422448692
0.0686847368 0.1080115374 -0.3626305264
0.4168405941 0.0230589776 0.3336811883
0.0026511277 0.2629442246 -0.4946977446
0.1374839137 0.1134294669 -0.2250321726
0.2469066730 0.1442979799 -0.0061866540
0.0035482137 0.4817351482 -0.4929035726
0.1435367852 0.0674188402 -0.2129264296
0.0793930817 0.2063652919 -0.3412138367
0.2389434242 0.1315341940 -0.0221131517
0.0510733368 0.3712085020 -0.3978533264
0.1150796824 0.1785133036 -0.2698406353
0.1555721293 0.2984672514 -0.1888557414
0.2565422301 0.0481258124 0.0130844603
0.0295478591 0.0928283584 -0.4409042817
0.0331535753 0.2959001591 -0.4336928495
0.3977125300 0.0513088372 0.2954250599
0.0061082587 0.4408093082 -0.4877834826
0.3688952093 0.0995490685 0.2377904187
0.0075417027 0.0110321482 -0.4849165946
0.1753135077 0.2688638617 -0.1493729846
0.3430138119 0.1319996335 0.1860276238
0.0434919547 0.3511086529 -0.4130160907
0.1553918211 0.0496778073 -0.1892163579
0.1511299350 0.1206295195 -0.1977401301
0.1608728119 0.2303611336 -0.1782543762
0.3502835743 0.1264776323 0.2005671485
0.0749614394 0.0653279528 -0.3500771212
0.2532307753 0.1103136749 0.0064615507
0.4363274264 0.0347237965 0.3726548529
0.1153461414 0.1445871227 -0.2693077173
0.0998408580 0.2746377030 -0.3003182841
0.3665515185 0.0377178611 0.2331030371
0.2250015190 0.1488662361 -0.0499969619
0.3664714790 0.3487952167 0.2329429581
0.3923185324 0.3228773204 0.2846370647
0.2485569766 0.2615677317 -0.0028860468
0.3590750204 0.4384374056 0.2181500407
0.3828687146 0.4976436662 0.2657374292
0.4552370594 0.1351061066 0.4104741188
0.4651724965 0.4720357376 0.4303449930
0.4566044953 0.2498588313 0.4132089905
0.4770766729 0.3621269230 0.4541533458
0.0896774551 0.4475453364 -0.3206450899
0.2302203365 0.4095955303 -0.0395593270
0.2651325740 0.3731304097 0.0302651480
0.4972922331 0.3872771635 0.4945844663
0.4460489861 0.4660931922 0.3920979723
0.2932666019 0.4029329494 0.0865332039
0.2222596515 0.3669787726 -0.0554806971
0.4028611353 0.2740396234 0.3057222706
0.2163541398 0.3836081119 -0.0672917203
0.4194252162 0.1476016634 0.3388504324
0.1949525854 0.4053998644 -0.1100948291
0.3085149223 0.3713930558 0.1170298445
0.4152496624 0.3988890471 0.3304993249
0.4232600248 0.3300857935 0.3465200495
0.3917510633 0.4297733056 0.2835021265
0.3414237418 0.4940572162 0.1828474835
0.2755039203 0.2789384156 0.0510078405
0.4586724825 0.0772435940 0.4173449651
0.2054827627 0.4693241761 -0.0890344746
0.4206864197 0.3984750379 0.3413728394
0.4395331838 0.4081575350 0.3790663677
0.3964233694 0.3709940101 0.2928467388
0.4246087373 0.4784070781 0.3492174746
0.2170222210 0.3446032160 -0.0659555580
0.2063262070 0.4494785695 -0.0873475860
0.4658338574 0.3396892419 0.4316677148
0.2482673757 0.4087032752 -0.0034652486
0.2231240351 0.3883596571 -0.0537519297
0.0703624378 0.4763959944 -0.3592751245
0.4384379711 0.4321736551 0.3768759422
0.4441922756 0.2893789331 0.3883845512
0.4888144524 0.4212496331 0.4776289048
0.2771041591 0.2978085139 0.0542083182
0.4503927047 0.4782840673 0.4007854094
0.0747201165 0.4596426099 -0.3505597669
0.4661022437 0.1600394924 0.4322044873
0.4808387378 0.2996063570 0.4616774755
0.4080464191 0.4275861051 0.3160928382
0.2904063891 0.3203691715 0.0808127783
0.2222363404 0.3508591677 -0.0555273192
0.4920571972 0.0537385015 0.4841143945
0.2102041496 0.4449023017 -0.0795917007
0.4321446657 0.3214713044 0.3642893314
0.2647985566 0.2500516485 0.0295971132
0.4933806875 0.0569688988 0.4867613750
0.2357635365 0.3531208827 -0.0284729270
0.2661547502 0.2672698112 0.0323095003
0.4421386161 0.1796219982 0.3842772321
0.2867384124 0.4549958349 0.0734768247
0.4535020714 0.3004880080 0.4070041428
0.3575562413 0.1605854783 0.2151124826
0.2477664150 0.3202488875 -0.0044671700
0.2280597470 0.4718819834 -0.0438805060
0.1426994518 0.4440315762 -0.2146010964
0.3679546838 0.4009470697 0.2359093675
0.3829007042 0.2881995181 0.2658014085
0.2054892819 0.3042887742 -0.0890214362
0.3806730693 0.3900665585 0.2613461385
0.3962990580 0.2821964990 0.2925981160
0.4858016684 0.3470620857 0.4716033368
0.3690879330 0.4933692917 0.2381758661
0.2799570832 0.2364691061 0.0599141665
0.3387908790 0.4029522111 0.1775817580
0.4592938481 0.2186869897 0.4185876962
0.2282576359 0.2752001238 -0.0434847283
0.4262379034 0.2804620556 0.3524758068
0.4652924377 0.0692853228 0.4305848755
0.4051822535 0.1839899602 0.3103645071
0.3718233557 0.2516085108 0.2436467114
0.3348114698 0.4088837551 0.1696229396
0.1784990006 0.4558581265 -0.1430019987
0.4993323844 0.4481411039 0.4986647689
0.2000685941 0.4644695917 -0.0998628118
0.4525764120 0.1316669454 0.4051528240
0.1938586135 0.3070002148 -0.1122827729
0.3166974345 0.2197234409 0.1333948690
0.0969152116 0.4290168144 -0.3061695768
0.3667243616 0.4538409696 0.2334487232
0.0630932669 0.4500486806 -0.3738134661
0.0147773221 0.4986116261 -0.4704453557
0.4601382986 0.4368813367 0.4202765972
0.3395588216 0.2359834430 0.1791176432
0.4655615576 0.1031930305 0.4311231152
0.1369201347 0.3639790398 -0.2261597306
0.4968724056 0.2124759107 0.4937448111
0.2360241976 0.4717841021 -0.0279516048
0.4437867408 0.3723245045 0.3875734816
0.3703843685 0.2874104639 0.2407687370
0.3842929008 0.1361521895 0.2685858016
0.2964214665 0.4027763442 0.0928429330
0.4708647685 0.0737504340 0.4417295369
0.3916277671 0.2954639056 0.2832555343
0.3804966131 0.4486031396 0.2609932262
0.2960176153 0.4722143058 0.0920352305
0.4963943142 0.3896280302 0.4927886284
0.4856752332 0.1711413653 0.4713504663
0.4227593849 0.2607860004 0.3455187698
0.4896584179 0.4295258201 0.4793168357
0.3634275102 0.4197022296 0.2268550204
0.4044856765 0.2593352897 0.3089713530
0.4575519509 0.4443482567 0.4151039017
0.4376471912 0.4189802904 0.3752943824
0.2418094785 0.4382926495 -0.0163810430
0.1301338649 0.4363885013 -0.2397322703
0.4058780211 0.3667299314 0.3117560421
0.1578655773 0.4517642555 -0.1842688455
0.3970294759 0.2647517978 0.2940589518
0.3270310943 0.4168786993 0.1540621885
0.3294663408 0.2687898918 0.1589326816
0.3279440660 0.3945152436 0.1558881320
0.3387511061 0.4502026812 0.1775022122
0.4804757789 0.3624518129 0.4609515578
0.1966660600 0.3904714394 -0.1066678800
0.1811875157 0.4555050569 -0.1376249685
0.4077182634 0.1598379102 0.3154365268
0.0190463321 0.4868760173 -0.4619073358
0.4229260164 0.3583285423 0.3458520327
0.4086792404 0.1363631830 0.3173584809
0.4159395305 0.3697332954 0.3318790609
0.4914437723 0.0855830313 0.4828875447
0.2385579117 0.2885344493 -0.0228841766
0.4442512926 0.0942989989 0.3885025853
0.4835495273 0.2913277376 0.4670990546
0.4224725058 0.1790109141 0.3449450116
0.4686506279 0.3322094441 0.4373012559
0.2914255889 0.4726224831 0.0828511778
0.3966693785 0.2184957902 0.2933387569
0.4916430331 0.4528572485 0.4832860662
0.3571069543 0.4369715820 0.2142139086
0.2982309912 0.4624441120 0.0964619824
0.3670672853 0.3815231321 0.2341345707
0.3946471977 0.4159168389 0.2892943955
0.3025014483 0.4123854205 0.1050028967
0.3456109573 0.4019332675 0.1912219146
0.4906400235 0.0621532262 0.4812800470
0.1733252471 0.3340314704 -0.1533495059
0.4100398199 0.3455015921 0.3200796399
0.4591836067 0.2362333204 0.4183672134
0.4435553208 0.0725194835 0.3871106416
0.1836627702 0.3795510972 -0.1326744597
0.3584727651 0.4603909941 0.2169455303
0.0957378716 0.4636410940 -0.3085242567
0.2402402848 0.4915762773 -0.0195194305
0.4153641142 0.3158230950 0.3307282283
0.3502196993 0.4357352493 0.2004393985
0.2471013932 0.4084523648 -0.0057972136
0.3276938757 0.4982750754 0.1553877513
0.2911527212 0.3411902432 0.0823054425
0.0688846893 0.4870413380 -0.3622306214
0.3968198109 0.2937894679 0.2936396218
0.4845283877 0.2556215161 0.4690567755
0.4880984657 0.3413067129 0.4761969314
0.2666107845 0.4053115268 0.0332215690
0.4450750004 0.0937608359 0.3901500008
0.4300020869 0.0956785293 0.3600041738
0.4944041851 0.1464203601 0.4888083701
0.4312270158 0.3079145113 0.3624540315
0.2523107339 0.4497334807 0.0046214679
0.4887030261 0.2506262783 0.4774060522
0.2001513529 0.4600191984 -0.0996972942
0.3039990903 0.3220687103 0.1079981807
0.3107384379 0.4764439009 0.1214768758
0.4996666510 0.0545372687 0.4993333021
0.3713294300 0.3330603156 0.2426588600
0.4267587350 0.1801788751 0.3535174701
0.3215863301 0.4090342000 0.1431726602
0.1825431086 0.4157968779 -0.1349137827
0.4832381394 0.2829620252 0.4664762789
0.4746800678 0.3925761939 0.4493601356
0.4752955363 0.1569472154 0.4505910727
0.4200660814 0.4118238019 0.3401321628
0.3216063337 0.2196613913 0.1432126674
0.3281332327 0.4220294282 0.1562664654
0.3946842994 0.2157946709 0.2893685988
0.3652715907 0.2509629638 0.2305431813
0.2036394982 0.4527736351 -0.0927210037
0.4611608711 0.3238181111 0.4223217422
0.4823690380 0.1540608030 0.4647380760
0.4128795937 0.2099774005 0.3257591874
0.3355635337 0.4357806411 0.1711270675
0.4599693408 0.2316043401 0.4199386817
0.3780225635 0.1577421991 0.2560451271
0.4663403558 0.4529680338 0.4326807115
0.3843438850 0.4584872477 0.2686877701
0.3144793233 0.3731544449 0.1289586465
0.4334217736 0.3816798179 0.3668435472
0.2984943022 0.4746613154 0.0969886045
0.3588650988 0.4447961280 0.2177301977
0.4822559990 0.2931021501 0.4645119981
0.2577328311 0.4411053655 0.0154656622
0.4360623101 0.1710224506 0.3721246203
0.4118353862 0.3987585975 0.3236707723
0.2326094648 0.4994340143 -0.0347810704
0.2922758714 0.4960402430 0.0845517429
0.3815285744 0.2688157202 0.2630571488
0.4308734890 0.1069056037 0.3617469779
0.4353668383 0.2000187680 0.3707336766
0.3154597123 0.4099279761 0.1309194246
0.3237882673 0.2967396836 0.1475765346
0.4534454502 0.3740046953 0.4068909004
0.4003239407 0.3779319355 0.3006478814
0.1069020890 0.4094870515 -0.2861958221
0.3753896736 0.2785306109 0.2507793473
0.4286641725 0.4256282500 0.3573283450
0.1323020733 0.4832307143 -0.2353958534
0.1699850284 0.4661894707 -0.1600299433
0.4783675776 0.1581230443 0.4567351551
0.4984196333 0.1442423223 0.4968392667
0.2476050272 0.4587540697 -0.0047899455
0.4376144771 0.3270684758 0.3752289542
0.3068740114 0.4379127930 0.1137480227
0.2265516731 0.4352554956 -0.0468966539
0.2447056339 0.2576420240 -0.0105887321
0.3057669051 0.4878649871 0.1115338103
0.4933859746 0.1571151470 0.4867719492
0.3120535889 0.4245379504 0.1241071777
0.3451340814 0.4608609999 0.1902681627
0.3689488452 0.1852155692 0.2378976905
0.1402960661 0.4875206898 -0.2194078678
0.4351113936 0.1010922001 0.3702227871
0.4690249528 0.3673410868 0.4380499057
0.3713258851 0.2054439536 0.2426517701
0.1046950229 0.4961183270 -0.2906099543
0.2084735617 0.4063890319 -0.0830528767
0.4203692352 0.3188785817 0.3407384705
0.4477184003 0.4899274950 0.3954368007
0.2394992951 0.3861212926 -0.0210014098
0.4099001667 0.1080167483 0.3198003334
0.1920995230 0.4021941249 -0.1158009541
0.4573899344 0.4639138273 0.4147798689
0.4674749496 0.2553649783 0.4349498992
0.4484672983 0.3914057583 0.3969345965
0.1032105036 0.4582415820 -0.2935789928
0.4572614510 0.0748953459 0.4145229019
0.4932858361 0.2266401011 0.4865716722
0.3833813310 0.2237940539 0.2667626619
0.2777391695 0.4259372126 0.0554783391
0.4354504214 0.2088648174 0.3709008427
0.3145106175 0.3429283235 0.1290212350
0.3685142590 0.2309753092 0.2370285181
0.1939327762 0.3970548312 -0.1121344476
0.4322510711 0.4386810618 0.3645021422
0.1684098082 0.3745054286 -0.1631803836
0.3613863110 0.2300858232 0.2227726220
0.2571868133 0.3102797476 0.0143736265
0.3251506940 0.3351717436 0.1503013880
0.2480673949 0.3194219676 -0.0038652101
0.2851621294 0.4117767337 0.0703242588
0.0398293371 0.4619981140 -0.4203413258
0.4486164106 0.3850043766 0.3972328212
0.2582411797 0.3904878848 0.0164823595
0.2324045031 0.3416835192 -0.0351909938
0.2695778695 0.4407530236 0.0391557391
0.3550479977 0.3449649839 0.2100959955
0.4217933554 0.3388624802 0.3435867109
0.1320115363 0.4007009119 -0.2359769273
0.2165906200 0.3815124507 -0.0668187599
0.2965804963 0.4955976939 0.0931609926
0.4415289295 0.2101448675 0.3830578590
0.1674755306 0.3589494558 -0.1650489388
0.0949625298 0.4651949134 -0.3100749404
0.2730664370 0.2438775215 0.0461328739
0.4512450337 0.2014913869 0.4024900674
0.2314512016 0.3084921229 -0.0370975968
0.2781846134 0.3561686852 0.0563692268
0.3967823734 0.2317741615 0.2935647469
0.4989617432 0.2209080794 0.4979234863
0.3227294232 0.3299594063 0.1454588463
0.0428072130 0.4922177557 -0.4143855740
0.4460076074 0.1943508826 0.3920152149
0.1399891529 0.4153092217 -0.2200216943
0.4979422317 0.3736338548 0.4958844633
0.4786399980 0.0711990173 0.4572799961
0.3979535898 0.3983798561 0.2959071795
0.4032361734 0.3695430239 0.3064723468
0.4615191231 0.2233237898 0.4230382462
0.4623140042 0.0543212309 0.4246280084
0.3646404134 0.1825755304 0.2292808268
0.3240954674 0.3545583616 0.1481909349
0.1605303677 0.4742605574 -0.1789392646
0.4468588842 0.1851297332 0.3937177685
0.3247670584 0.1799410268 0.1495341169
0.2713536310 0.4593633743 0.0427072621
0.4633325300 0.2603079118 0.4266650601
0.4828822744 0.4981443829 0.4657645489
0.3371342073 0.4509972444 0.1742684147
0.3594374533 0.3097341100 0.2188749066
0.4268859148 0.2894440892 0.3537718296
0.1791949399 0.4774850247 -0.1416101201
0.4850932621 0.3808956509 0.4701865242
0.3588424685 0.1640402260 0.2176849371
0.4580340541 0.2326964316 0.4160681082
0.4201264064 0.2332805386 0.3402528129
0.3648290385 0.2672195991 0.2296580770
0.1347457957 0.4564773739 -0.2305084086
0.3681621214 0.2626375342 0.2363242429
0.1080724994 0.4890271782 -0.2838550012
0.4896995124 0.1299057631 0.4793990249
0.4305372512 0.2437175717 0.3610745024
0.4324878007 0.1520789137 0.3649756014
0.1501605012 0.3730146594 -0.1996789975
0.3549022706 0.2255465273 0.2098045412
0.2499216348 0.4007860575 -0.0001567305
0.3611812001 0.2151024616 0.2223624002
0.0913629630 0.4163233411 -0.3172740740
0.1565781776 0.4639376230 -0.1868436448
0.1785623942 0.3673709703 -0.1428752117
0.3659468445 0.2830147523 0.2318936890
0.2750138583 0.3758736916 0.0500277166
0.1814894693 0.4598325691 -0.1370210613
0.2370986331 0.4848827847 -0.0258027338
0.3245289645 0.4238167442 0.1490579290
0.4143287856 0.3921794482 0.3286575713
0.2545693168 0.3358392248 0.0091386337
0.4879447087 0.2292881934 0.4758894174
0.4743427181 0.2454980920 0.4486854362
0.3254659670 0.2100435998 0.1509319339
0.4220982120 0.4106456017 0.3441964241
0.3138523088 0.4767726208 0.1277046176
0.4251532658 0.4761021437 0.3503065315
0.0937573119 0.4484118586 -0.3124853762
0.2355027684 0.6781155030 -0.0289944633
0.2762563152 0.5363199456 0.0525126304
0.0451891477 0.9505786123 -0.4096217045
0.1810360708 0.5117986072 -0.1379278584
0.0704712575 0.6576426158 -0.3590574850
0.3210757310 0.5780629267 0.1421514620
0.1647216338 0.7695388763 -0.1705567324
0.0735235336 0.6227021912 -0.3529529327
0.1034380360 0.8133910149 -0.2931239280
0.0138919604 0.8482033162 -0.4722160792
0.2721443243 0.7168957031 0.0442886485
0.0056128078 0.6479927214 -0.4887743845
0.2003469385 0.7738616498 -0.0993061230
0.0138976636 0.5256263348 -0.4722046728
0.1161289253 0.7766842503 -0.2677421494
0.0279424883 0.7131959705 -0.4441150235
0.2590106789 0.7151525347 0.0180213578
0.0845123914 0.5107959125 -0.3309752172
0.3730896795 0.6029934215 0.2461793589
0.2893015862 0.6576896924 0.0786031724
0.1010256605 0.8648661254 -0.2979486789
0.0151481872 0.7061290332 -0.4697036257
0.3345002093 0.5237225522 0.1690004186
0.1593430569 0.7801331907 -0.1813138863
0.2250638692 0.5120586215 -0.0498722616
0.0716322103 0.8301949419 -0.3567355794
0.1080816987 0.6915287424 -0.2838366025
0.0014561913 0.7476158187 -0.4970876175
0.0464911700 0.6712676758 -0.4070176599
0.2105203314 0.5039512025 -0.0789593372
0.4558203684 0.5169507607 0.4116407368
0.1899187969 0.5439859037 -0.1201624063
0.2328077493 0.5224201704 -0.0343845014
0.1090604588 0.5764199312 -0.2818790824
0.1862742211 0.5965604494 -0.1274515578
0.1828149063 0.8020874113 -0.1343701874
0.3227334812 0.5064222656 0.1454669625
0.0805278632 0.7785508522 -0.3389442736
0.3080288556 0.6187548424 0.1160577111
0.2777270853 0.6950237534 0.0554541706
0.3007705266 0.5509429208 0.1015410532
0.1831194030 0.5870643926 -0.1337611940
0.1180861867 0.6704828749 -0.2638276265
0.0211994728 0.5250822344 -0.4576010543
0.0350006367 0.8677800118 -0.4299987265
0.1893578273 0.5402652402 -0.1212843454
0.0168659714 0.9820392196 -0.4662680572
0.1367902473 0.6884023900 -0.2264195053
0.0156121164 0.8457267671 -0.4687757673
0.1787415862 0.7352906846 -0.1425168276
0.2142643393 0.6082107866 -0.0714713214
0.1072372138 0.7370473892 -0.2855255724
0.0046489878 0.8546318422 -0.4907020245
0.0614328965 0.6306110272 -0.3771342070
0.1360428466 0.5791537198 -0.2279143068
0.0254140395 0.9726386664 -0.4491719209
0.0168619381 0.8858671772 -0.4662761238
0.0862039002 0.6183683743 -0.3275921997
0.3143007408 0.6286596124 0.1286014815
0.1854719078 0.5681071992 -0.1290561844
0.1322051876 0.5690868784 -0.2355896249
0.1958105441 0.7732008727 -0.1083789117
0.0842064994 0.5642879301 -0.3315870012
0.0172010997 0.6845818378 -0.4655978007
0.0718571761 0.6623429273 -0.3562856479
0.1859710630 0.5957257963 -0.1280578740
0.1573190395 0.5650317171 -0.1853619210
0.0101459572 0.8722951327 -0.4797080856
0.0054036170 0.8871393667 -0.4891927661
0.2151614507 0.5670123327 -0.0696770986
0.1951068331 0.5443211459 -0.1097863337
0.2124981655 0.6679717487 -0.0750036691
0.2600016632 0.6776067936 0.0200033264
0.3745330167 0.6195295149 0.2490660334
0.1201044128 0.8164654088 -0.2597911743
0.0774836098 0.8608052139 -0.3450327805
0.3411271592 0.5557531723 0.1822543184
0.0444476639 0.7406324646 -0.4111046723
0.1991707574 0.6574308205 -0.1016584851
0.0954948534 0.5053123472 -0.3090102931
0.1100551002 0.5140686927 -0.2798897997
0.2187271876 0.5639676130 -0.0625456248
0.1544070026 0.5955301509 -0.1911859948
0.0483653203 0.5715580896 -0.4032693595
0.0532323577 0.8639971451 -0.3935352845
0.1215779044 0.8043564859 -0.2568441913
0.1846665126 0.5696957980 -0.1306669749
0.2647991946 0.5035442604 0.0295983891
0.2087557751 0.5999764144 -0.0824884498
0.1900043489 0.6135866980 -0.1199913021
0.1436797623 0.6546849575 -0.2126404754
0.1216209861 0.7309690242 -0.2567580277
0.1337349307 0.6704567637 -0.2325301387
0.1775920901 0.5960813031 -0.1448158198
0.3067203232 0.5901495069 0.1134406464
0.3870447182 0.5312238051 0.2740894364
0.2379237689 0.6863023073 -0.0241524623
0.2912114183 0.5461164694 0.0824228365
0.2074259073 0.5281860766 -0.0851481854
0.3019252946 0.5954136914 0.1038505892
0.1363977572 0.8244088727 -0.2272044856
0.0566945154 0.8545259605 -0.3866109692
0.2150820712 0.5671724356 -0.0698358577
0.3281021206 0.6511206432 0.1562042413
0.1653785969 0.5227477726 -0.1692428063
0.0863731298 0.6416410160 -0.3272537404
0.1361923656 0.6042863668 -0.2276152689
0.0407204831 0.8675198755 -0.4185590339
0.0744489954 0.9056514360 -0.3511020091
0.1453440769 0.5975456228 -0.2093118463
0.0170828991 0.5831840124 -0.4658342018
0.1671125261 0.7300656618 -0.1657749478
0.1648576161 0.7370848171 -0.1702847678
0.1303961904 0.6704065736 -0.2392076192
0.0374656933 0.7984561945 -0.4250686135
0.0118549974 0.9315458515 -0.4762900053
0.1897419433 0.6838414728 -0.1205161134
0.1734930395 0.6243961470 -0.1530139210
0.0832274483 0.6940789717 -0.3335451035
0.2206009362 0.6797773231 -0.0587981276
0.2664600759 0.6199072716 0.0329201519
0.0616264835 0.8794517674 -0.3767470331
0.2250238767 0.5697385626 -0.0499522465
0.0188369417 0.8732739804 -0.4623261166
0.3548810124 0.5938772609 0.2097620247
0.0044836352 0.7732751159 -0.4910327297
0.2097556048 0.6362126357 -0.0804887903
0.0716855132 0.9280354305 -0.3566289736
0.3584615644 0.6056170038 0.2169231289
0.3295786843 0.6701586928 0.1591573686
0.1255483656 0.7739939729 -0.2489032687
0.4479614360 0.5255962349 0.3959228719
0.0273737909 0.9240821319 -0.4452524182
0.1680690515 0.8175438821 -0.1638618971
0.2569809927 0.6352199491 0.0139619853
0.1952286595 0.7279244659 -0.1095426811
0.1506617686 0.6666365761 -0.1986764627
0.1629909758 0.7415120930 -0.1740180484
0.1868612110 0.6105127865 -0.1262775781
0.1053844969 0.8711921096 -0.2892310062
0.3628743738 0.5561058953 0.2257487476
0.0525725240 0.7591056999 -0.3948549520
0.0480614290 0.7309399930 -0.4038771419
0.4819221034 0.5042915442 0.4638442067
0.0846649014 0.8444813217 -0.3306701972
0.3227336375 0.5643593618 0.1454672749
0.2932705453 0.6627400983 0.0865410907
0.0008271670 0.7619827830 -0.4983456660
0.3291500049 0.6122230107 0.1583000098
0.1151894407 0.8004684292 -0.2696211185
0.1046764042 0.5293861634 -0.2906471916
0.1299483396 0.7170480627 -0.2401033208
0.2194837357 0.7752924381 -0.0610325286
0.0318055887 0.7170297900 -0.4363888226
0.2487953466 0.6814806274 -0.0024093068
0.1083043789 0.8576436028 -0.2833912422
0.0116035893 0.7345348503 -0.4767928214
0.1354518654 0.5429679556 -0.2290962692
0.0039735655 0.5080264713 -0.4920528690
0.1980345451 0.5108740629 -0.1039309097
0.4306814413 0.5535953309 0.3613628826
0.1353349288 0.7811655900 -0.2293301424
0.0714592097 0.6758481652 -0.3570815806
0.0883546558 0.6882812808 -0.3232906884
0.0321782292 0.8726749530 -0.4356435416
0.1667552615 0.7203124554 -0.1664894771
0.2381754470 0.7452645355 -0.0236491059
0.1572014711 0.6568437574 -0.1855970577
0.2480138822 0.5198987521 -0.0039722357
0.2879478463 0.6920567773 0.0758956926
0.0286237512 0.7139608899 -0.4427524976
0.0705424237 0.5205002027 -0.3589151525
0.1301911126 0.7363178306 -0.2396177748
0.3879910738 0.5953697313 0.2759821475
0.2493335283 0.5769535150 -0.0013329434
0.1362704475 0.5026287263 -0.2274591051
0.1885675820 0.7570225501 -0.1228648360
0.0495329122 0.5716344480 -0.4009341755
0.1201472670 0.8139942531 -0.2597054659
0.0106910157 0.6819522976 -0.4786179686
0.4149461476 0.5078808798 0.3298922952
0.1052773851 0.8624472770 -0.2894452298
0.1170347011 0.8051225573 -0.2659305977
0.0052519470 0.7128737314 -0.4894961059
0.2778706359 0.7172745666 0.0557412717
0.3349166559 0.5988358711 0.1698333117
0.1411472047 0.5373251879 -0.2177055907
0.2415251928 0.7499969842 -0.0169496144
0.3895627006 0.6027648720 0.2791254013
0.1490470197 0.5671208159 -0.2019059606
0.2965576563 0.5022468855 0.0931153127
0.1124587232 0.6398058885 -0.2750825536
0.1960505944 0.7902239097 -0.1078988112
0.2511235336 0.7115842652 0.0022470672
0.0272373102 0.5540962333 -0.4455253796
0.2264168606 0.6528256813 -0.0471662787
0.4768473145 0.5162125744 0.4536946289
0.0066974979 0.6436444425 -0.4866050041
0.1437540951 0.5316798434 -0.2124918098
0.2087254078 0.5926485307 -0.0825491844
0.3109617592 0.6636866175 0.1219235183
0.1567580459 0.6300113641 -0.1864839082
0.0357669668 0.6864387972 -0.4284660664
0.4385247805 0.5205058027 0.3770495611
0.2662548179 0.5920653209 0.0325096359
0.1486260123 0.5347467048 -0.2027479754
0.0087787355 0.8605062569 -0.4824425291
0.1459760092 0.6458436277 -0.2080479815
0.0014126821 0.9444416285 -0.4971746358
0.3901916814 0.5196735948 0.2803833629
0.1346665425 0.8092142627 -0.2306669149
0.2705518357 0.6204590159 0.0411036713
0.1042341550 0.8323898426 -0.2915316901
0.1611326768 0.5868118650 -0.1777346463
0.0163538337 0.8649698190 -0.4672923327
0.2875359469 0.6884922641 0.0750718937
0.1085755858 0.6212288493 -0.2828488285
0.0609164105 0.6150892550 -0.3781671790
0.0088850698 0.5461215965 -0.4822298604
0.1531537853 0.6906597013 -0.1936924294
0.3390587947 0.5581703652 0.1781175895
0.0962092454 0.6677577877 -0.3075815091
0.1918112052 0.5562274927 -0.1163775897
0.1925569475 0.6251274058 -0.1148861050
0.3542134327 0.6195516748 0.2084268654
0.1266882618 0.7602814708 -0.2466234763
0.0415211625 0.7930118278 -0.4169576750
0.4017165205 0.5576636800 0.3034330410
0.2870475928 0.6066605873 0.0740951856
0.0837401367 0.6234553972 -0.3325197266
0.0155671235 0.8550841843 -0.4688657530
0.0142381128 0.9138350100 -0.4715237745
0.0719186349 0.5487507575 -0.3561627303
0.3181665878 0.6069764067 0.1363331756
0.1317836942 0.7424654837 -0.2364326116
0.2459860011 0.5757777174 -0.0080279977
0.0913818883 0.8815305041 -0.3172362235
0.0345471508 0.7993001610 -0.4309056983
0.2798754164 0.5171453163 0.0597508328
0.1270292719 0.5850102789 -0.2459414561
0.0017601343 0.7327753855 -0.4964797314
0.0276648012 0.6223999709 -0.4446703976
0.2082132181 0.7488228043 -0.0835735637
0.0947697033 0.6266889323 -0.3104605934
0.0145733523 0.8439951337 -0.4708532954
0.0077197371 0.8922778865 -0.4845605258
0.1045011017 0.6975170848 -0.2909977967
0.0211835680 0.9545669090 -0.4576328640
0.1764287691 0.5241165966 -0.1471424617
0.0473821556 0.9010744134 -0.4052356888
0.1400405232 0.8175016056 -0.2199189536
0.3266952473 0.5606011163 0.1533904946
0.1159713395 0.6983291923 -0.2680573211
0.0384138528 0.7775077585 -0.4231722943
0.2061741850 0.7464189315 -0.0876516301
0.2334002318 0.6773495376 -0.0331995365
0.3391638155 0.5786032434 0.1783276310
0.0065903054 0.5952111085 -0.4868193891
0.0097004019 0.9443842412 -0.4805991963
0.4198319776 0.5649151603 0.3396639553
0.1103836022 0.5964161711 -0.2792327957
0.3469246831 0.5431748150 0.1938493662
0.0702883115 0.6314741103 -0.3594233771
0.2706658204 0.6374692603 0.0413316408
0.0957373860 0.6532822983 -0.3085252281
0.0068054010 0.9627859378 -0.4863891979
0.3272076050 0.5520211077 0.1544152099
0.0167838701 0.6803910420 -0.4664322597
0.1560034060 0.5604098706 -0.1879931880
0.0693605539 0.5806751971 -0.3612788923
0.2808172123 0.5038410871 0.0616344246
0.1021346980 0.7323106811 -0.2957306041
0.1553785195 0.8102899222 -0.1892429611
0.3600537708 0.5893301597 0.2201075416
0.1003925814 0.8662636929 -0.2992148372
0.0957478628 0.5003765526 -0.3085042743
0.0630792892 0.8159456535 -0.3738414217
0.0245264413 0.6216465675 -0.4509471174
0.2874182377 0.6148150968 0.0748364753
0.0518388934 0.9215024749 -0.3963222132
0.3635599565 0.5210456153 0.2271199131
0.2321682630 0.5348748168 -0.0356634740
0.0500075968 0.9289878393 -0.3999848063
0.0632524003 0.5112743100 -0.3734951994
0.2026961025 0.6511988650 -0.0946077950
0.0033270193 0.5538905146 -0.4933459614
0.3366015542 0.5500850821 0.1732031084
0.1955057753 0.6096198925 -0.1089884493
0.1345177250 0.8061544700 -0.2309645500
0.1287574657 0.6924996235 -0.2424850686
0.0249777192 0.6695999677 -0.4500445616
0.1519898159 0.5160402620 -0.1960203683
0.1264841430 0.7621243346 -0.2470317140
0.1591264748 0.5324999761 -0.1817470504
0.3043006349 0.6805971567 0.1086012698
0.3981906453 0.5573088107 0.2963812907
0.2554976323 0.6893135899 0.0109952646
0.3535721700 0.5208446705 0.2071443400
0.1208156870 0.7844542026 -0.2583686259
