0.03972317 1.05559158 -0.42055365 0.894688 0.001310 -0.446689
0.07195249 1.36082959 -0.35609502 0.894688 0.001310 -0.446689
0.08163837 1.05512047 -0.33672327 0.894688 0.001310 -0.446689
0.14201057 1.02141428 -0.21597886 0.894688 0.001310 -0.446689
0.05475185 1.25689638 -0.39049628 0.894688 0.001310 -0.446689
0.24434009 1.07069278 -0.01131982 0.894688 0.001310 -0.446689
0.00415719 1.33489227 -0.49168563 0.894688 0.001310 -0.446689
0.12122401 1.14769220 -0.25755197 0.894688 0.001310 -0.446689
0.11938563 1.11468112 -0.26122874 0.894688 0.001310 -0.446689
0.22911407 1.01866972 -0.04177186 0.894688 0.001310 -0.446689
0.09908123 1.23963213 -0.30183756 0.894688 0.001310 -0.446689
0.32054514 1.07411015 0.14109027 0.894688 0.001310 -0.446689
0.06618788 1.30886793 -0.36762422 0.894688 0.001310 -0.446689
0.16505216 1.05439806 -0.16989568 0.894688 0.001310 -0.446689
0.11498781 1.25829351 -0.27002436 0.894688 0.001310 -0.446689
0.25918871 1.03802299 0.01837742 0.894688 0.001310 -0.446689
0.03028549 1.27261400 -0.43942901 0.894688 0.001310 -0.446689
0.16484256 1.14444554 -0.17031488 0.894688 0.001310 -0.446689
0.15423459 1.07620192 -0.19153082 0.894688 0.001310 -0.446689
0.27050671 1.12340069 0.04101342 0.894688 0.001310 -0.446689
0.34889922 1.05029869 0.19779843 0.894688 0.001310 -0.446689
0.33537313 1.02885270 0.17074627 0.894688 0.001310 -0.446689
0.36298248 1.01871586 0.22596496 0.894688 0.001310 -0.446689
0.30308414 1.02564168 0.10616827 0.894688 0.001310 -0.446689
0.07275737 1.33205867 -0.35448527 0.894688 0.001310 -0.446689
0.35582426 1.04569805 0.21164852 0.894688 0.001310 -0.446689
0.03037761 1.08060360 -0.43924478 0.894688 0.001310 -0.446689
0.26416874 1.12663388 0.02833748 0.894688 0.001310 -0.446689
0.25434133 1.17089760 0.00868267 0.894688 0.001310 -0.446689
0.13522926 1.33256304 -0.22954148 0.894688 0.001310 -0.446689
0.06003298 1.43980932 -0.37993404 0.894688 0.001310 -0.446689
0.20552331 1.23629260 -0.08895338 0.894688 0.001310 -0.446689
0.00581337 1.45813310 -0.48837328 0.894688 0.001310 -0.446689
0.17890885 1.13379979 -0.14218229 0.894688 0.001310 -0.446689
0.12557405 1.15031695 -0.24885190 0.894688 0.001310 -0.446689
0.35634711 1.07848048 0.21269423 0.894688 0.001310 -0.446689
0.03270938 1.36108470 -0.43458125 0.894688 0.001310 -0.446689
0.45241153 1.01997232 0.40482306 0.894688 0.001310 -0.446689
0.13461114 1.13711071 -0.23077771 0.894688 0.001310 -0.446689
0.01399001 1.33039856 -0.47201997 0.894688 0.001310 -0.446689
0.17520203 1.12586963 -0.14959595 0.894688 0.001310 -0.446689
0.46474433 1.00013113 0.42948866 0.894688 0.001310 -0.446689
0.25436395 1.04895604 0.00872791 0.894688 0.001310 -0.446689
0.26921600 1.09965444 0.03843200 0.894688 0.001310 -0.446689
0.41296706 1.03650284 0.32593411 0.894688 0.001310 -0.446689
0.01148813 1.26723790 -0.47702375 0.894688 0.001310 -0.446689
0.38257024 1.03313541 0.26514047 0.894688 0.001310 -0.446689
0.35812896 1.09341240 0.21625793 0.894688 0.001310 -0.446689
0.37517667 1.06024957 0.25035334 0.894688 0.001310 -0.446689
0.07369085 1.15566230 -0.35261831 0.894688 0.001310 -0.446689
0.18158154 1.07165790 -0.13683692 0.894688 0.001310 -0.446689
0.13636190 1.17321181 -0.22727621 0.894688 0.001310 -0.446689
0.19118014 1.29715085 -0.11763972 0.894688 0.001310 -0.446689
0.04165152 1.32298160 -0.41669697 0.894688 0.001310 -0.446689
0.03528349 1.03076911 -0.42943302 0.894688 0.001310 -0.446689
0.05561550 1.01622629 -0.38876900 0.894688 0.001310 -0.446689
0.07991759 1.34538996 -0.34016481 0.894688 0.001310 -0.446689
0.30606127 1.05248570 0.11212254 0.894688 0.001310 -0.446689
0.22021168 1.27051950 -0.05957663 0.894688 0.001310 -0.446689
0.01332823 1.31088901 -0.47334352 0.894688 0.001310 -0.446689
0.27338943 1.21857190 0.04677886 0.894688 0.001310 -0.446689
0.18955860 1.28991878 -0.12088281 0.894688 0.001310 -0.446689
0.12389614 1.19385505 -0.25220773 0.894688 0.001310 -0.446689
0.00511131 1.00805593 -0.48977739 0.894688 0.001310 -0.446689
0.08383037 1.37076867 -0.33233926 0.894688 0.001310 -0.446689
0.14140771 1.06790280 -0.21718457 0.894688 0.001310 -0.446689
0.00082451 1.25398421 -0.49835098 0.894688 0.001310 -0.446689
0.44618329 1.04007411 0.39236659 0.894688 0.001310 -0.446689
0.06887900 1.23957539 -0.36224198 0.894688 0.001310 -0.446689
0.31408456 1.03655028 0.12816912 0.894688 0.001310 -0.446689
0.01044445 1.30497432 -0.47911111 0.894688 0.001310 -0.446689
0.16536331 1.04319453 -0.16927338 0.894688 0.001310 -0.446689
0.02831551 1.44189310 -0.44336897 0.894688 0.001310 -0.446689
0.35888812 1.05273175 0.21777624 0.894688 0.001310 -0.446689
0.28881136 1.10210443 0.07762271 0.894688 0.001310 -0.446689
0.15185599 1.28936291 -0.19628802 0.894688 0.001310 -0.446689
0.36329263 1.11175060 0.22658527 0.894688 0.001310 -0.446689
0.08379457 1.24657321 -0.33241087 0.894688 0.001310 -0.446689
0.13215446 1.18019819 -0.23569107 0.894688 0.001310 -0.446689
0.05593509 1.21005011 -0.38812983 0.894688 0.001310 -0.446689
0.16460557 1.33026338 -0.17078885 0.894688 0.001310 -0.446689
0.03950560 1.13424528 -0.42098880 0.894688 0.001310 -0.446689
0.03689387 1.01493800 -0.42621225 0.894688 0.001310 -0.446689
0.17364509 1.20152688 -0.15270981 0.894688 0.001310 -0.446689
0.17563203 1.02873981 -0.14873594 0.894688 0.001310 -0.446689
0.35424390 1.08083248 0.20848781 0.894688 0.001310 -0.446689
0.03114371 1.46148860 -0.43771258 0.894688 0.001310 -0.446689
0.29675275 1.05949271 0.09350550 0.894688 0.001310 -0.446689
0.10816138 1.15668929 -0.28367722 0.894688 0.001310 -0.446689
0.18979634 1.08588123 -0.12040731 0.894688 0.001310 -0.446689
0.14837714 1.06968176 -0.20324573 0.894688 0.001310 -0.446689
0.01758572 1.32903695 -0.46482858 0.894688 0.001310 -0.446689
0.08156590 1.07546616 -0.33686820 0.894688 0.001310 -0.446689
0.23809530 1.04904854 -0.02380940 0.894688 0.001310 -0.446689
0.36767995 1.00690889 0.23535991 0.894688 0.001310 -0.446689
0.39219752 1.09893823 0.28439504 0.894688 0.001310 -0.446689
0.04691940 1.14334583 -0.40616119 0.894688 0.001310 -0.446689
0.32335249 1.08658457 0.14670497 0.894688 0.001310 -0.446689
0.22798081 1.10820842 -0.04403839 0.894688 0.001310 -0.446689
0.02638541 1.00622416 -0.44722918 0.894688 0.001310 -0.446689
0.10367935 1.14502776 -0.29264128 0.894688 0.001310 -0.446689
0.08309594 1.00543308 -0.33380812 0.894688 0.001310 -0.446689
0.12782225 1.09295225 -0.24435550 0.894688 0.001310 -0.446689
0.21115458 1.18894303 -0.07769084 0.894688 0.001310 -0.446689
0.19128297 1.16246080 -0.11743405 0.894688 0.001310 -0.446689
0.06240098 1.14532447 -0.37519804 0.894688 0.001310 -0.446689
0.17523575 1.19448662 -0.14952850 0.894688 0.001310 -0.446689
0.03290524 1.42531538 -0.43418953 0.894688 0.001310 -0.446689
0.07777166 1.39185238 -0.34445667 0.894688 0.001310 -0.446689
0.06749854 1.18201935 -0.36500293 0.894688 0.001310 -0.446689
0.13979664 1.28582942 -0.22040671 0.894688 0.001310 -0.446689
0.01955603 1.41266716 -0.46088794 0.894688 0.001310 -0.446689
0.00221964 1.48561049 -0.49556074 0.894688 0.001310 -0.446689
0.25180644 1.07907128 0.00361288 0.894688 0.001310 -0.446689
0.15850560 1.33080494 -0.18298879 0.894688 0.001310 -0.446689
0.29094851 1.11535120 0.08189702 0.894688 0.001310 -0.446689
0.09872040 1.33565676 -0.30255920 0.894688 0.001310 -0.446689
0.04322977 1.37799275 -0.41354045 0.894688 0.001310 -0.446689
0.23489977 1.14168382 -0.03020045 0.894688 0.001310 -0.446689
0.29592967 1.00878894 0.09185934 0.894688 0.001310 -0.446689
0.00708515 1.01576734 -0.48582968 0.894688 0.001310 -0.446689
0.36205414 1.11095226 0.22410828 0.894688 0.001310 -0.446689
0.00949404 1.03720832 -0.48101193 0.894688 0.001310 -0.446689
0.08241915 1.37301803 -0.33516169 0.894688 0.001310 -0.446689
0.00854428 1.20218968 -0.48291144 0.894688 0.001310 -0.446689
0.02400669 1.28000832 -0.45198661 0.894688 0.001310 -0.446689
0.10840957 1.34908986 -0.28318086 0.894688 0.001310 -0.446689
0.01017271 1.18392015 -0.47965458 0.894688 0.001310 -0.446689
0.22735214 1.08984303 -0.04529572 0.894688 0.001310 -0.446689
0.02738206 1.04668629 -0.44523588 0.894688 0.001310 -0.446689
0.15128629 1.27166200 -0.19742742 0.894688 0.001310 -0.446689
0.01309130 1.05974257 -0.47381741 0.894688 0.001310 -0.446689
0.06790029 1.17236972 -0.36419940 0.894688 0.001310 -0.446689
0.07621498 1.08596241 -0.34757003 0.894688 0.001310 -0.446689
0.38137734 1.11343241 0.26275468 0.894688 0.001310 -0.446689
0.23247243 1.01806521 -0.03505513 0.894688 0.001310 -0.446689
0.15668504 1.03907037 -0.18662992 0.894688 0.001310 -0.446689
0.28876707 1.03813088 0.07753414 0.894688 0.001310 -0.446689
0.03242961 1.00197625 -0.43514079 0.894688 0.001310 -0.446689
0.13781370 1.17834318 -0.22437260 0.894688 0.001310 -0.446689
0.44918889 1.04926467 0.39837778 0.894688 0.001310 -0.446689
0.18728669 1.25283229 -0.12542662 0.894688 0.001310 -0.446689
0.18336365 1.12953925 -0.13327271 0.894688 0.001310 -0.446689
0.02113676 1.41875017 -0.45772648 0.894688 0.001310 -0.446689
0.28419599 1.20739698 0.06839198 0.894688 0.001310 -0.446689
0.06287365 1.21417928 -0.37425271 0.894688 0.001310 -0.446689
0.21032926 1.20882154 -0.07934147 0.894688 0.001310 -0.446689
0.01104711 1.45773959 -0.47790578 0.894688 0.001310 -0.446689
0.26160938 1.23022795 0.02321875 0.894688 0.001310 -0.446689
0.14270079 1.02045095 -0.21459842 0.894688 0.001310 -0.446689
0.36958498 1.11109662 0.23916996 0.894688 0.001310 -0.446689
0.17648682 1.19694984 -0.14702636 0.894688 0.001310 -0.446689
0.12586515 1.24734330 -0.24826971 0.894688 0.001310 -0.446689
0.25136209 1.02674270 0.00272417 0.894688 0.001310 -0.446689
0.14872935 1.26534152 -0.20254129 0.894688 0.001310 -0.446689
0.33664274 1.04826486 0.17328548 0.894688 0.001310 -0.446689
0.05796526 1.22780347 -0.38406947 0.894688 0.001310 -0.446689
0.12148128 1.03715062 -0.25703743 0.894688 0.001310 -0.446689
0.07475306 1.15150630 -0.35049388 0.894688 0.001310 -0.446689
0.03604894 1.07676804 -0.42790210 0.894688 0.001310 -0.446689
0.16763459 1.06771994 -0.16473082 0.894688 0.001310 -0.446689
0.00416982 1.48653662 -0.49166036 0.894688 0.001310 -0.446689
0.18206750 1.11568356 -0.13586500 0.894688 0.001310 -0.446689
0.48460013 1.01268744 0.46920025 0.894688 0.001310 -0.446689
0.12989375 1.11257184 -0.24021250 0.894688 0.001310 -0.446689
0.06219828 1.36707711 -0.37560344 0.894688 0.001310 -0.446689
0.17375536 1.22919941 -0.15248927 0.894688 0.001310 -0.446689
0.10589599 1.08087158 -0.28820801 0.894688 0.001310 -0.446689
0.34738508 1.08142138 0.19477016 0.894688 0.001310 -0.446689
0.15575436 1.24199677 -0.18849128 0.894688 0.001310 -0.446689
0.18422350 1.11669409 -0.13155299 0.894688 0.001310 -0.446689
0.24162486 1.12376189 -0.01675028 0.894688 0.001310 -0.446689
0.29496011 1.19765496 0.08992022 0.894688 0.001310 -0.446689
0.07777631 1.17205405 -0.34444737 0.894688 0.001310 -0.446689
0.25415689 1.13427150 0.00831378 0.894688 0.001310 -0.446689
0.20546561 1.18555224 -0.08906877 0.894688 0.001310 -0.446689
0.01649136 1.18596184 -0.46701726 0.894688 0.001310 -0.446689
0.21330883 1.06367290 -0.07338235 0.894688 0.001310 -0.446689
0.05594859 1.23714328 -0.38810283 0.894688 0.001310 -0.446689
0.41919348 1.04470110 0.33838695 0.894688 0.001310 -0.446689
0.06828296 1.15744472 -0.36343408 0.894688 0.001310 -0.446689
0.27438143 1.00662446 0.04876286 0.894688 0.001310 -0.446689
0.06418177 1.37255538 -0.37163645 0.894688 0.001310 -0.446689
0.09619173 1.12159538 -0.30761653 0.894688 0.001310 -0.446689
0.18801999 1.14541280 -0.12396002 0.894688 0.001310 -0.446689
0.11447297 1.37535262 -0.27105406 0.894688 0.001310 -0.446689
0.12415274 1.24646747 -0.25169450 0.894688 0.001310 -0.446689
0.10618430 1.37990844 -0.28763139 0.894688 0.001310 -0.446689
0.36343724 1.10200405 0.22687447 0.894688 0.001310 -0.446689
0.07716615 1.03863764 -0.34566769 0.894688 0.001310 -0.446689
0.08676257 1.26174617 -0.32647485 0.894688 0.001310 -0.446689
0.40997356 1.03022790 0.31994712 0.894688 0.001310 -0.446689
0.00958731 1.14138842 -0.48082539 0.894688 0.001310 -0.446689
0.21605590 1.11364841 -0.06788820 0.894688 0.001310 -0.446689
0.10934895 1.24711871 -0.28130209 0.894688 0.001310 -0.446689
0.36381391 1.00525975 0.22762781 0.894688 0.001310 -0.446689
0.42388201 1.03177154 0.34776402 0.894688 0.001310 -0.446689
0.21329302 1.06970179 -0.07341397 0.894688 0.001310 -0.446689
0.03556681 1.15090609 -0.42886639 0.894688 0.001310 -0.446689
0.27486256 1.19180036 0.04972512 0.894688 0.001310 -0.446689
0.14738683 1.35079539 -0.20522633 0.894688 0.001310 -0.446689
0.05845375 1.25277567 -0.38309249 0.894688 0.001310 -0.446689
0.37441501 1.07271218 0.24883002 0.894688 0.001310 -0.446689
0.16966383 1.10290956 -0.16067234 0.894688 0.001310 -0.446689
0.08051798 1.07638383 -0.33896405 0.894688 0.001310 -0.446689
0.26415244 1.09109282 0.02830487 0.894688 0.001310 -0.446689
0.14880225 1.00144386 -0.20239550 0.894688 0.001310 -0.446689
0.29294986 1.00645709 0.08589971 0.894688 0.001310 -0.446689
0.12794645 1.23787212 -0.24410710 0.894688 0.001310 -0.446689
0.15343882 1.28059161 -0.19312236 0.894688 0.001310 -0.446689
0.04613974 1.30329776 -0.40772054 0.894688 0.001310 -0.446689
0.02445582 1.29567623 -0.45108837 0.894688 0.001310 -0.446689
0.07769650 1.29740167 -0.34460700 0.894688 0.001310 -0.446689
0.20089476 1.01481807 -0.09821048 0.894688 0.001310 -0.446689
0.07126653 1.06602693 -0.35746694 0.894688 0.001310 -0.446689
0.38991249 1.08723116 0.27982497 0.894688 0.001310 -0.446689
0.33992419 1.12837076 0.17984837 0.894688 0.001310 -0.446689
0.31986830 1.08173072 0.13973659 0.894688 0.001310 -0.446689
0.02895849 1.40865159 -0.44208300 0.894688 0.001310 -0.446689
0.00725874 1.29838240 -0.48548251 0.894688 0.001310 -0.446689
0.02644713 1.14010358 -0.44710574 0.894688 0.001310 -0.446689
0.17733170 1.28214240 -0.14533660 0.894688 0.001310 -0.446689
0.13988435 1.34137106 -0.22023129 0.894688 0.001310 -0.446689
0.20323683 1.12215376 -0.09352633 0.894688 0.001310 -0.446689
0.01476322 1.18800044 -0.47047356 0.894688 0.001310 -0.446689
0.39831215 1.04918003 0.29662430 0.894688 0.001310 -0.446689
0.30632424 1.02588367 0.11264849 0.894688 0.001310 -0.446689
0.35418093 1.04954123 0.20836186 0.894688 0.001310 -0.446689
0.19267671 1.11931920 -0.11464658 0.894688 0.001310 -0.446689
0.22321814 1.11613297 -0.05356371 0.894688 0.001310 -0.446689
0.01550886 1.18135929 -0.46898228 0.894688 0.001310 -0.446689
0.21399310 1.25570607 -0.07201380 0.894688 0.001310 -0.446689
0.19193813 1.10264897 -0.11612374 0.894688 0.001310 -0.446689
0.22291283 1.09812808 -0.05417433 0.894688 0.001310 -0.446689
0.20763102 1.10907650 -0.08473796 0.894688 0.001310 -0.446689
0.21877298 1.19100416 -0.06245404 0.894688 0.001310 -0.446689
0.28584418 1.19463730 0.07168835 0.894688 0.001310 -0.446689
0.07339059 1.33857524 -0.35321882 0.894688 0.001310 -0.446689
0.27285555 1.12617242 0.04571110 0.894688 0.001310 -0.446689
0.33423838 1.12940419 0.16847676 0.894688 0.001310 -0.446689
0.36245495 1.13264358 0.22490990 0.894688 0.001310 -0.446689
0.30362886 1.13694334 0.10725772 0.894688 0.001310 -0.446689
0.00233214 1.45964479 -0.49533573 0.894688 0.001310 -0.446689
0.01471526 1.15259409 -0.47056949 0.894688 0.001310 -0.446689
0.12995376 1.34084404 -0.24009249 0.894688 0.001310 -0.446689
0.23387386 1.18913245 -0.03225228 0.894688 0.001310 -0.446689
0.12698987 1.33469498 -0.24602026 0.894688 0.001310 -0.446689
0.14395106 1.07671297 -0.21209788 0.894688 0.001310 -0.446689
0.09546208 1.09338748 -0.30907583 0.894688 0.001310 -0.446689
0.10516650 1.31088209 -0.28966701 0.894688 0.001310 -0.446689
0.15897350 1.03150582 -0.18205300 0.894688 0.001310 -0.446689
0.06182600 1.15169251 -0.37634802 0.894688 0.001310 -0.446689
0.06207336 1.34435892 -0.37585327 0.894688 0.001310 -0.446689
0.23305300 1.13308048 -0.03389400 0.894688 0.001310 -0.446689
0.00099700 1.37306845 -0.49800602 0.894688 0.001310 -0.446689
0.25788686 1.21846938 0.01577371 0.894688 0.001310 -0.446689
0.23118107 1.06644177 -0.03763786 0.894688 0.001310 -0.446689
0.43079671 1.06871581 0.36159343 0.894688 0.001310 -0.446689
0.23021387 1.07279551 -0.03957227 0.894688 0.001310 -0.446689
0.12963802 1.14480317 -0.24072397 0.894688 0.001310 -0.446689
0.11422529 1.21747172 -0.27154940 0.894688 0.001310 -0.446689
0.01378559 1.30753744 -0.47242883 0.894688 0.001310 -0.446689
0.08934195 1.37821066 -0.32131609 0.894688 0.001310 -0.446689
0.06386192 1.06444001 -0.37227616 0.894688 0.001310 -0.446689
0.21852967 1.00063634 -0.06294066 0.894688 0.001310 -0.446689
0.14849094 1.15958571 -0.20301813 0.894688 0.001310 -0.446689
0.26442596 1.14616418 0.02885193 0.894688 0.001310 -0.446689
0.10080556 1.17113256 -0.29838890 0.894688 0.001310 -0.446689
0.38647038 1.01205802 0.27294075 0.894688 0.001310 -0.446689
0.11554918 1.01456261 -0.26890165 0.894688 0.001310 -0.446689
0.02060524 1.29391074 -0.45878953 0.894688 0.001310 -0.446689
0.19165576 1.06831336 -0.11668849 0.894688 0.001310 -0.446689
0.06673037 1.32268465 -0.36653924 0.894688 0.001310 -0.446689
0.21594661 1.08826840 -0.06810677 0.894688 0.001310 -0.446689
0.20550735 1.09941518 -0.08898529 0.894688 0.001310 -0.446689
0.49200550 1.00426924 0.48401099 0.894688 0.001310 -0.446689
0.18615383 1.09602976 -0.12769234 0.894688 0.001310 -0.446689
0.24145427 1.10730338 -0.01709145 0.894688 0.001310 -0.446689
0.04691143 1.14470959 -0.40617713 0.894688 0.001310 -0.446689
0.22305691 1.24305248 -0.05388618 0.894688 0.001310 -0.446689
0.01800942 1.41287899 -0.46398115 0.894688 0.001310 -0.446689
0.25788930 1.03895652 0.01577860 0.894688 0.001310 -0.446689
0.40573505 1.08022332 0.31147009 0.894688 0.001310 -0.446689
0.09286978 1.34489381 -0.31426042 0.894688 0.001310 -0.446689
0.38930339 1.03127694 0.27860677 0.894688 0.001310 -0.446689
0.09093414 1.09169495 -0.31813172 0.894688 0.001310 -0.446689
0.28139481 1.21580577 0.06278962 0.894688 0.001310 -0.446689
0.35010833 1.14919400 0.20021665 0.894688 0.001310 -0.446689
0.25524905 1.22271466 0.01049811 0.894688 0.001310 -0.446689
0.34776679 1.11387563 0.19553357 0.894688 0.001310 -0.446689
0.04156290 1.42446876 -0.41687420 0.894688 0.001310 -0.446689
0.01390651 1.27800584 -0.47218698 0.894688 0.001310 -0.446689
0.10696659 1.15373158 -0.28606683 0.894688 0.001310 -0.446689
0.07334924 1.04283786 -0.35330153 0.894688 0.001310 -0.446689
0.12078697 1.03379583 -0.25842607 0.894688 0.001310 -0.446689
0.34851953 1.13112950 0.19703907 0.894688 0.001310 -0.446689
0.00790116 1.39909685 -0.48419768 0.894688 0.001310 -0.446689
0.17182702 1.01104903 -0.15634596 0.894688 0.001310 -0.446689
0.31299996 1.05499840 0.12599993 0.894688 0.001310 -0.446689
0.24430595 1.18296576 -0.01138809 0.894688 0.001310 -0.446689
0.16832764 1.23502100 -0.16334471 0.894688 0.001310 -0.446689
0.15005198 1.28904939 -0.19989604 0.894688 0.001310 -0.446689
0.01399687 1.07276261 -0.47200626 0.894688 0.001310 -0.446689
0.04741250 1.40352893 -0.40517500 0.894688 0.001310 -0.446689
0.16649270 1.01733112 -0.16701460 0.894688 0.001310 -0.446689
0.16415571 1.22792697 -0.17168859 0.894688 0.001310 -0.446689
0.45252329 1.04260969 0.40504658 0.894688 0.001310 -0.446689
0.08737689 1.04835987 -0.32524621 0.894688 0.001310 -0.446689
0.37120378 1.08579850 0.24240756 0.894688 0.001310 -0.446689
0.02674111 1.45927382 -0.44651777 0.894688 0.001310 -0.446689
0.11194282 1.00916886 -0.27611434 0.894688 0.001310 -0.446689
0.18927813 1.30911577 -0.12144375 0.894688 0.001310 -0.446689
0.23177156 1.04525590 -0.03645688 0.894688 0.001310 -0.446689
0.00995370 1.15292203 -0.48009259 0.894688 0.001310 -0.446689
0.23726130 1.23810887 -0.02547741 0.894688 0.001310 -0.446689
0.20190383 1.02080965 -0.09619233 0.894688 0.001310 -0.446689
0.09796266 1.14024520 -0.30407467 0.894688 0.001310 -0.446689
0.17775509 1.27044678 -0.14448982 0.894688 0.001310 -0.446689
0.24060877 1.06458068 -0.01878247 0.894688 0.001310 -0.446689
0.24809642 1.09510565 -0.00380716 0.894688 0.001310 -0.446689
0.01535709 1.48430514 -0.46928582 0.894688 0.001310 -0.446689
0.15925461 1.26890564 -0.18149078 0.894688 0.001310 -0.446689
0.05230752 1.36924160 -0.39538497 0.894688 0.001310 -0.446689
0.00049570 1.18459249 -0.49900860 0.894688 0.001310 -0.446689
0.34631845 1.11461139 0.19263691 0.894688 0.001310 -0.446689
0.31561482 1.10600448 0.13122964 0.894688 0.001310 -0.446689
0.10421439 1.20092309 -0.29157120 0.894688 0.001310 -0.446689
0.14528795 1.19673848 -0.20942411 0.894688 0.001310 -0.446689
0.40879399 1.05505633 0.31758797 0.894688 0.001310 -0.446689
0.05173056 1.32821405 -0.39653888 0.894688 0.001310 -0.446689
0.04507723 1.08422911 -0.40984553 0.894688 0.001310 -0.446689
0.20584556 1.18380260 -0.08830887 0.894688 0.001310 -0.446689
0.23473768 1.12594235 -0.03052464 0.894688 0.001310 -0.446689
0.00375181 1.19487286 -0.49249637 0.894688 0.001310 -0.446689
0.05706455 1.34214795 -0.38587090 0.894688 0.001310 -0.446689
0.26603973 1.14396596 0.03207946 0.894688 0.001310 -0.446689
0.09949709 1.22419477 -0.30100581 0.894688 0.001310 -0.446689
0.42871091 1.05613339 0.35742182 0.894688 0.001310 -0.446689
0.20584834 1.11191261 -0.08830333 0.894688 0.001310 -0.446689
0.29327416 1.01534605 0.08654833 0.894688 0.001310 -0.446689
0.17453688 1.14188421 -0.15092623 0.894688 0.001310 -0.446689
0.00905362 1.24218404 -0.48189276 0.894688 0.001310 -0.446689
0.40322751 1.05521965 0.30645502 0.894688 0.001310 -0.446689
0.17547956 1.17211735 -0.14904088 0.894688 0.001310 -0.446689
0.07414040 1.33444190 -0.35171920 0.894688 0.001310 -0.446689
0.18442364 1.15963387 -0.13115272 0.894688 0.001310 -0.446689
0.02948506 1.34636462 -0.44102988 0.894688 0.001310 -0.446689
0.10319879 1.12359619 -0.29360241 0.894688 0.001310 -0.446689
0.20202167 1.00884748 -0.09595665 0.894688 0.001310 -0.446689
0.04438546 1.45161545 -0.41122907 0.894688 0.001310 -0.446689
0.26353112 1.21522999 0.02706224 0.894688 0.001310 -0.446689
0.36779696 1.09599102 0.23559391 0.894688 0.001310 -0.446689
0.08175685 1.41002190 -0.33648631 0.894688 0.001310 -0.446689
0.37526578 1.02657342 0.25053155 0.894688 0.001310 -0.446689
0.29579940 1.06648815 0.09159881 0.894688 0.001310 -0.446689
0.13152632 1.13049579 -0.23694736 0.894688 0.001310 -0.446689
0.36114800 1.09482026 0.22229600 0.894688 0.001310 -0.446689
0.15475470 1.11953354 -0.19049060 0.894688 0.001310 -0.446689
0.29451519 1.19056094 0.08903039 0.894688 0.001310 -0.446689
0.20495187 1.05972791 -0.09009627 0.894688 0.001310 -0.446689
0.31420591 1.06361508 0.12841183 0.894688 0.001310 -0.446689
0.25311098 1.17376614 0.00622195 0.894688 0.001310 -0.446689
0.15584187 1.11791372 -0.18831626 0.894688 0.001310 -0.446689
0.19211762 1.04317236 -0.11576477 0.894688 0.001310 -0.446689
0.37039062 1.10235643 0.24078125 0.894688 0.001310 -0.446689
0.39416829 1.05956507 0.28833658 0.894688 0.001310 -0.446689
0.24338181 1.21833897 -0.01323637 0.894688 0.001310 -0.446689
0.22552827 1.00362468 -0.04894346 0.894688 0.001310 -0.446689
0.24875942 1.00495863 -0.00248116 0.894688 0.001310 -0.446689
0.05444638 1.31350303 -0.39110723 0.894688 0.001310 -0.446689
0.26585332 1.19793224 0.03170663 0.894688 0.001310 -0.446689
0.47335580 1.01057196 0.44671160 0.894688 0.001310 -0.446689
0.32637414 1.04894185 0.15274829 0.894688 0.001310 -0.446689
0.19521417 1.23547626 -0.10957167 0.894688 0.001310 -0.446689
0.00838330 1.17602646 -0.48323339 0.894688 0.001310 -0.446689
0.16953170 1.07446694 -0.16093659 0.894688 0.001310 -0.446689
0.29072413 1.03715062 0.08144826 0.894688 0.001310 -0.446689
0.04167167 1.11985779 -0.41665667 0.894688 0.001310 -0.446689
0.18947893 1.29869604 -0.12104213 0.894688 0.001310 -0.446689
0.16671474 1.20781255 -0.16657051 0.894688 0.001310 -0.446689
0.26781464 1.23209703 0.03562927 0.894688 0.001310 -0.446689
0.13212427 1.21683526 -0.23575145 0.894688 0.001310 -0.446689
0.26536459 1.15136886 0.03072917 0.894688 0.001310 -0.446689
0.30585903 1.06139660 0.11171806 0.894688 0.001310 -0.446689
0.06345426 1.08746183 -0.37309146 0.894688 0.001310 -0.446689
0.01334482 1.25383210 -0.47331035 0.894688 0.001310 -0.446689
0.09933773 1.03679681 -0.30132455 0.894688 0.001310 -0.446689
0.07167864 1.10368121 -0.35664272 0.894688 0.001310 -0.446689
0.35316688 1.02375102 0.20633376 0.894688 0.001310 -0.446689
0.04701354 1.16773117 -0.40597290 0.894688 0.001310 -0.446689
0.02445535 1.25308657 -0.45108929 0.894688 0.001310 -0.446689
0.04925709 1.19481969 -0.40148583 0.894688 0.001310 -0.446689
0.09103090 1.25084138 -0.31793821 0.894688 0.001310 -0.446689
0.20040432 1.25364459 -0.09919137 0.894688 0.001310 -0.446689
0.14646120 1.28948498 -0.20707759 0.894688 0.001310 -0.446689
0.05590221 1.22149849 -0.38819557 0.894688 0.001310 -0.446689
0.10704565 1.09698224 -0.28590870 0.894688 0.001310 -0.446689
0.18672496 1.29258788 -0.12655008 0.894688 0.001310 -0.446689
0.38821939 1.06722474 0.27643877 0.894688 0.001310 -0.446689
0.11349659 1.37781525 -0.27300683 0.894688 0.001310 -0.446689
0.18034224 1.24778891 -0.13931552 0.894688 0.001310 -0.446689
0.14815588 1.25290012 -0.20368823 0.894688 0.001310 -0.446689
0.22599168 1.14231563 -0.04801664 0.894688 0.001310 -0.446689
0.01967904 1.14006627 -0.46064192 0.894688 0.001310 -0.446689
0.15545715 1.28957307 -0.18908569 0.894688 0.001310 -0.446689
0.10944172 1.33295071 -0.28111655 0.894688 0.001310 -0.446689
0.24499136 1.13066185 -0.01001728 0.894688 0.001310 -0.446689
0.08478914 1.05294085 -0.33042172 0.894688 0.001310 -0.446689
0.06429267 1.24447536 -0.37141466 0.894688 0.001310 -0.446689
0.25443101 1.23902261 0.00886202 0.894688 0.001310 -0.446689
0.08701304 1.18478060 -0.32597393 0.894688 0.001310 -0.446689
0.36897531 1.01514864 0.23795062 0.894688 0.001310 -0.446689
0.15526779 1.20278168 -0.18946442 0.894688 0.001310 -0.446689
0.17112859 1.11687660 -0.15774283 0.894688 0.001310 -0.446689
0.03232341 1.39276147 -0.43535319 0.894688 0.001310 -0.446689
0.14726734 1.29747200 -0.20546532 0.894688 0.001310 -0.446689
0.11249249 1.08901620 -0.27501503 0.894688 0.001310 -0.446689
0.02321077 1.44819319 -0.45357847 0.894688 0.001310 -0.446689
0.01391801 1.37646377 -0.47216398 0.894688 0.001310 -0.446689
0.38715136 1.00503325 0.27430272 0.894688 0.001310 -0.446689
0.22223365 1.13526893 -0.05553269 0.894688 0.001310 -0.446689
0.34027687 1.05512834 0.18055373 0.894688 0.001310 -0.446689
0.06840311 1.18184400 -0.36319378 0.894688 0.001310 -0.446689
0.07485098 1.17507696 -0.35029805 0.894688 0.001310 -0.446689
0.08977173 1.14586484 -0.32045653 0.894688 0.001310 -0.446689
0.28710106 1.16212034 0.07420212 0.894688 0.001310 -0.446689
0.15293424 1.31670070 -0.19413152 0.894688 0.001310 -0.446689
0.10420872 1.29907131 -0.29158255 0.894688 0.001310 -0.446689
0.17183904 1.28356194 -0.15632191 0.894688 0.001310 -0.446689
0.18864010 1.24616182 -0.12271979 0.894688 0.001310 -0.446689
0.06259580 1.17624950 -0.37480840 0.894688 0.001310 -0.446689
0.06198605 1.39163232 -0.37602788 0.894688 0.001310 -0.446689
0.09703099 1.00411868 -0.30593801 0.894688 0.001310 -0.446689
0.08690039 1.27050662 -0.32619923 0.894688 0.001310 -0.446689
0.15019132 1.15086436 -0.19961736 0.894688 0.001310 -0.446689
0.18495758 1.23198760 -0.13008484 0.894688 0.001310 -0.446689
0.00489098 1.02254033 -0.49021804 0.894688 0.001310 -0.446689
0.02537723 1.27717650 -0.44924554 0.894688 0.001310 -0.446689
0.07739045 1.26772273 -0.34521908 0.894688 0.001310 -0.446689
0.25744653 1.24214256 0.01489305 0.894688 0.001310 -0.446689
0.33197758 1.12914193 0.16395515 0.894688 0.001310 -0.446689
0.20083906 1.21882343 -0.09832188 0.894688 0.001310 -0.446689
0.37957224 1.05672050 0.25914448 0.894688 0.001310 -0.446689
0.20320463 1.14769566 -0.09359074 0.894688 0.001310 -0.446689
0.01147346 1.06960797 -0.47705308 0.894688 0.001310 -0.446689
0.29235154 1.11661148 0.08470309 0.894688 0.001310 -0.446689
0.05597059 1.43846774 -0.38805881 0.894688 0.001310 -0.446689
0.35711366 1.04422259 0.21422732 0.894688 0.001310 -0.446689
0.23000576 1.12826991 -0.03998849 0.894688 0.001310 -0.446689
0.38150924 1.01732564 0.26301849 0.894688 0.001310 -0.446689
0.24550025 1.03982425 -0.00899950 0.894688 0.001310 -0.446689
0.05434354 1.37130392 -0.39131293 0.894688 0.001310 -0.446689
0.12382314 1.32943511 -0.25235373 0.894688 0.001310 -0.446689
0.13565017 1.13577402 -0.22869965 0.894688 0.001310 -0.446689
0.13391791 1.11006224 -0.23216417 0.894688 0.001310 -0.446689
0.25151324 1.17555857 0.00302649 0.894688 0.001310 -0.446689
0.31190297 1.04183555 0.12380594 0.894688 0.001310 -0.446689
0.03991140 1.10430884 -0.42017719 0.894688 0.001310 -0.446689
0.44636968 1.05357563 0.39273936 0.894688 0.001310 -0.446689
0.16740604 1.08089972 -0.16518793 0.894688 0.001310 -0.446689
0.27727354 1.12614822 0.05454707 0.894688 0.001310 -0.446689
0.10123516 1.09127998 -0.29752970 0.894688 0.001310 -0.446689
0.09564814 1.07567191 -0.30870372 0.894688 0.001310 -0.446689
0.30779570 1.01541352 0.11559141 0.894688 0.001310 -0.446689
0.28433943 1.02080989 0.06867886 0.894688 0.001310 -0.446689
0.24497236 1.04665208 -0.01005527 0.894688 0.001310 -0.446689
0.20885772 1.16623235 -0.08228457 0.894688 0.001310 -0.446689
0.19909641 1.17721438 -0.10180718 0.894688 0.001310 -0.446689
0.33452326 1.05343211 0.16904652 0.894688 0.001310 -0.446689
0.19857638 1.08762634 -0.10284725 0.894688 0.001310 -0.446689
0.12910570 1.10136843 -0.24178860 0.894688 0.001310 -0.446689
0.12468125 1.16509688 -0.25063750 0.894688 0.001310 -0.446689
0.00056665 1.30613685 -0.49886671 0.894688 0.001310 -0.446689
0.23738396 1.19266808 -0.02523208 0.894688 0.001310 -0.446689
0.21032962 1.19433880 -0.07934076 0.894688 0.001310 -0.446689
0.21153945 1.02019000 -0.07692111 0.894688 0.001310 -0.446689
0.22973038 1.21171427 -0.04053923 0.894688 0.001310 -0.446689
0.04072119 1.16686094 -0.41855761 0.894688 0.001310 -0.446689
0.02511540 1.21049595 -0.44976920 0.894688 0.001310 -0.446689
0.01813556 1.37048650 -0.46372887 0.894688 0.001310 -0.446689
0.26451570 1.04445016 0.02903140 0.894688 0.001310 -0.446689
0.07802542 1.37688065 -0.34394917 0.894688 0.001310 -0.446689
0.09041771 1.29725027 -0.31916457 0.894688 0.001310 -0.446689
0.10615152 1.02824581 -0.28769696 0.894688 0.001310 -0.446689
0.09232800 1.15610456 -0.31534401 0.894688 0.001310 -0.446689
0.05150252 1.34189439 -0.39699495 0.894688 0.001310 -0.446689
0.16884057 1.27088451 -0.16231886 0.894688 0.001310 -0.446689
0.06266931 1.32684815 -0.37466139 0.894688 0.001310 -0.446689
0.11389759 1.01201749 -0.27220482 0.894688 0.001310 -0.446689
0.17534657 1.04308987 -0.14930686 0.894688 0.001310 -0.446689
0.19824503 1.25973332 -0.10350993 0.894688 0.001310 -0.446689
0.22318541 1.15966487 -0.05362919 0.894688 0.001310 -0.446689
0.16767475 1.18951190 -0.16465050 0.894688 0.001310 -0.446689
0.12174886 1.22720945 -0.25650227 0.894688 0.001310 -0.446689
0.02133650 1.02002513 -0.45732701 0.894688 0.001310 -0.446689
0.31385925 1.06939077 0.12771851 0.894688 0.001310 -0.446689
0.18666159 1.16342545 -0.12667683 0.894688 0.001310 -0.446689
0.18936224 1.16242838 -0.12127551 0.894688 0.001310 -0.446689
0.09621492 1.35662067 -0.30757016 0.894688 0.001310 -0.446689
0.11021632 1.37568879 -0.27956736 0.894688 0.001310 -0.446689
0.22138596 1.18322575 -0.05722809 0.894688 0.001310 -0.446689
0.02133919 1.32834435 -0.45732161 0.894688 0.001310 -0.446689
0.02083558 1.09022450 -0.45832884 0.894688 0.001310 -0.446689
0.18745506 1.01391423 -0.12508988 0.894688 0.001310 -0.446689
0.23212095 1.08715224 -0.03575811 0.894688 0.001310 -0.446689
0.02240204 1.31244123 -0.45519590 0.894688 0.001310 -0.446689
0.07256826 1.19342852 -0.35486346 0.894688 0.001310 -0.446689
0.33763176 1.07225394 0.17526352 0.894688 0.001310 -0.446689
0.35649687 1.08237672 0.21299374 0.894688 0.001310 -0.446689
0.47674993 1.02024388 0.45349985 0.894688 0.001310 -0.446689
0.21158697 1.06780028 -0.07682607 0.894688 0.001310 -0.446689
0.27152619 1.02468276 0.04305238 0.894688 0.001310 -0.446689
0.20285951 1.14517295 -0.09428099 0.894688 0.001310 -0.446689
0.11462767 1.25890267 -0.27074465 0.894688 0.001310 -0.446689
0.04444907 1.30832529 -0.41110188 0.894688 0.001310 -0.446689
0.07135455 1.41870999 -0.35729089 0.894688 0.001310 -0.446689
0.23256908 1.10147858 -0.03486183 0.894688 0.001310 -0.446689
0.03365706 1.37452447 -0.43268588 0.894688 0.001310 -0.446689
0.05832435 1.24224484 -0.38335130 0.894688 0.001310 -0.446689
0.13877435 1.31388998 -0.22245130 0.894688 0.001310 -0.446689
0.07272384 1.12253487 -0.35455233 0.894688 0.001310 -0.446689
0.32101884 1.13894820 0.14203769 0.894688 0.001310 -0.446689
0.23561490 1.14987385 -0.02877021 0.894688 0.001310 -0.446689
0.26113570 1.20962691 0.02227139 0.894688 0.001310 -0.446689
0.02081781 1.19031096 -0.45836440 0.894688 0.001310 -0.446689
0.08281144 1.26065731 -0.33437711 0.894688 0.001310 -0.446689
0.13652559 1.04444802 -0.22694883 0.894688 0.001310 -0.446689
0.17610878 1.21425557 -0.14778244 0.894688 0.001310 -0.446689
0.22312002 1.21474814 -0.05375996 0.894688 0.001310 -0.446689
0.02164836 1.32761180 -0.45670328 0.894688 0.001310 -0.446689
0.15568136 1.09021366 -0.18863729 0.894688 0.001310 -0.446689
0.03331729 1.01628470 -0.43336540 0.894688 0.001310 -0.446689
0.08963413 1.27302754 -0.32073176 0.894688 0.001310 -0.446689
0.19045338 1.05403972 -0.11909324 0.894688 0.001310 -0.446689
0.18635173 1.22208476 -0.12729654 0.894688 0.001310 -0.446689
0.20113465 1.03586590 -0.09773070 0.894688 0.001310 -0.446689
0.35338518 1.12270689 0.20677036 0.894688 0.001310 -0.446689
0.06521068 1.12376475 -0.36957866 0.894688 0.001310 -0.446689
0.10524729 1.25844693 -0.28950542 0.894688 0.001310 -0.446689
0.34907359 1.13846469 0.19814718 0.894688 0.001310 -0.446689
0.17078386 1.03331411 -0.15843228 0.894688 0.001310 -0.446689
0.09184304 1.17500281 -0.31631392 0.894688 0.001310 -0.446689
0.29441226 1.20266747 0.08882451 0.894688 0.001310 -0.446689
0.28970778 1.07011616 0.07941556 0.894688 0.001310 -0.446689
0.16077732 1.06207597 -0.17844537 0.894688 0.001310 -0.446689
0.40843382 1.01080859 0.31686765 0.894688 0.001310 -0.446689
0.37548694 1.00200653 0.25097388 0.894688 0.001310 -0.446689
0.06416443 1.26167929 -0.37167114 0.894688 0.001310 -0.446689
0.09899782 1.31016421 -0.30200437 0.894688 0.001310 -0.446689
0.35658199 1.11950850 0.21316397 0.894688 0.001310 -0.446689
0.03192842 1.11882877 -0.43614316 0.894688 0.001310 -0.446689
0.07894918 1.00359845 -0.34210163 0.894688 0.001310 -0.446689
0.18105523 1.23561239 -0.13788953 0.894688 0.001310 -0.446689
0.01914212 1.06205297 -0.46171576 0.894688 0.001310 -0.446689
0.13213076 1.02571547 -0.23573849 0.894688 0.001310 -0.446689
0.03561302 1.06420588 -0.42877394 0.894688 0.001310 -0.446689
0.15979190 1.16264176 -0.18041620 0.894688 0.001310 -0.446689
0.36567241 1.12416768 0.23134482 0.894688 0.001310 -0.446689
0.25082207 1.18278885 0.00164413 0.894688 0.001310 -0.446689
0.27741572 1.01692116 0.05483145 0.894688 0.001310 -0.446689
0.08721404 1.12381053 -0.32557192 0.894688 0.001310 -0.446689
0.00314604 1.32322025 -0.49370793 0.894688 0.001310 -0.446689
0.03188703 1.28063953 -0.43622595 0.894688 0.001310 -0.446689
0.32677189 1.10623217 0.15354377 0.894688 0.001310 -0.446689
0.09770110 1.29991126 -0.30459780 0.894688 0.001310 -0.446689
0.11080302 1.02254725 -0.27839398 0.894688 0.001310 -0.446689
0.30123103 1.18214607 0.10246205 0.894688 0.001310 -0.446689
0.03975810 1.19804740 -0.42048380 0.894688 0.001310 -0.446689
0.01348613 1.13483953 -0.47302774 0.894688 0.001310 -0.446689
0.28672928 1.11341274 0.07345855 0.894688 0.001310 -0.446689
0.46327505 1.02122211 0.42655009 0.894688 0.001310 -0.446689
0.07146597 1.03098798 -0.35706806 0.894688 0.001310 -0.446689
0.17777649 1.32041001 -0.14444703 0.894688 0.001310 -0.446689
0.06820203 1.00892663 -0.36359596 0.894688 0.001310 -0.446689
0.46779042 1.02243650 0.43558085 0.894688 0.001310 -0.446689
0.06795710 1.27293825 -0.36408579 0.894688 0.001310 -0.446689
0.14640482 1.08456540 -0.20719036 0.894688 0.001310 -0.446689
0.30091885 1.01804376 0.10183769 0.894688 0.001310 -0.446689
0.34258804 1.10091400 0.18517607 0.894688 0.001310 -0.446689
0.28642818 1.11624146 0.07285637 0.894688 0.001310 -0.446689
0.30308646 1.18898427 0.10617292 0.894688 0.001310 -0.446689
0.06426998 1.32409394 -0.37146002 0.894688 0.001310 -0.446689
0.27568138 1.03271413 0.05136275 0.894688 0.001310 -0.446689
0.10856618 1.31754923 -0.28286764 0.894688 0.001310 -0.446689
0.19644858 1.06213915 -0.10710284 0.894688 0.001310 -0.446689
0.04020086 1.06420326 -0.41959828 0.894688 0.001310 -0.446689
0.27605358 1.00672579 0.05210716 0.894688 0.001310 -0.446689
0.06627201 1.01030898 -0.36745599 0.894688 0.001310 -0.446689
0.36224794 1.04558253 0.22449589 0.894688 0.001310 -0.446689
0.32690448 1.14037037 0.15380895 0.894688 0.001310 -0.446689
0.00970526 1.08754313 -0.48058948 0.894688 0.001310 -0.446689
0.05247088 1.26701868 -0.39505824 0.894688 0.001310 -0.446689
0.23136693 1.20732844 -0.03726614 0.894688 0.001310 -0.446689
0.01684384 1.32189071 -0.46631232 0.894688 0.001310 -0.446689
0.17724083 1.14357924 -0.14551833 0.894688 0.001310 -0.446689
0.18340556 1.29727721 -0.13318887 0.894688 0.001310 -0.446689
0.36352873 1.08196819 0.22705746 0.894688 0.001310 -0.446689
0.44380119 1.02976310 0.38760239 0.894688 0.001310 -0.446689
0.08685946 1.39016676 -0.32628107 0.894688 0.001310 -0.446689
0.00229976 1.19900107 -0.49540049 0.894688 0.001310 -0.446689
0.33947337 1.14856815 0.17894673 0.894688 0.001310 -0.446689
0.42516166 1.00604844 0.35032332 0.894688 0.001310 -0.446689
0.16109169 1.08864045 -0.17781663 0.894688 0.001310 -0.446689
0.27587733 1.14152730 0.05175465 0.894688 0.001310 -0.446689
0.16041845 1.33093297 -0.17916310 0.894688 0.001310 -0.446689
0.37026766 1.08459663 0.24053532 0.894688 0.001310 -0.446689
0.26951236 1.05265999 0.03902471 0.894688 0.001310 -0.446689
0.00837986 1.46278453 -0.48324028 0.894688 0.001310 -0.446689
0.26363358 1.22608769 0.02726716 0.894688 0.001310 -0.446689
0.31209588 1.16530681 0.12419176 0.894688 0.001310 -0.446689
0.38799709 1.00444102 0.27599418 0.894688 0.001310 -0.446689
0.16917260 1.25175357 -0.16165480 0.894688 0.001310 -0.446689
0.02812370 1.13565373 -0.44375262 0.894688 0.001310 -0.446689
0.11064689 1.25309849 -0.27870622 0.894688 0.001310 -0.446689
0.07517790 1.31093621 -0.34964418 0.894688 0.001310 -0.446689
0.38548872 1.01078486 0.27097744 0.894688 0.001310 -0.446689
0.30988669 1.09918368 0.11977339 0.894688 0.001310 -0.446689
0.40614122 1.03563678 0.31228244 0.894688 0.001310 -0.446689
0.19105080 1.26080620 -0.11789840 0.894688 0.001310 -0.446689
0.25296357 1.19901109 0.00592715 0.894688 0.001310 -0.446689
0.26623666 1.13361776 0.03247333 0.894688 0.001310 -0.446689
0.05436035 1.17883968 -0.39127928 0.894688 0.001310 -0.446689
0.05037921 1.15500021 -0.39924160 0.894688 0.001310 -0.446689
0.21134527 1.12266564 -0.07730946 0.894688 0.001310 -0.446689
0.08962717 1.23418212 -0.32074565 0.894688 0.001310 -0.446689
0.04798438 1.17725110 -0.40403122 0.894688 0.001310 -0.446689
0.03326970 1.00676966 -0.43346059 0.894688 0.001310 -0.446689
0.09182741 1.37832022 -0.31634516 0.894688 0.001310 -0.446689
0.16764639 1.21134162 -0.16470721 0.894688 0.001310 -0.446689
0.01060157 1.40218508 -0.47879687 0.894688 0.001310 -0.446689
0.16055137 1.10254550 -0.17889726 0.894688 0.001310 -0.446689
0.22998388 1.05797267 -0.04003224 0.894688 0.001310 -0.446689
0.15723123 1.02952003 -0.18553755 0.894688 0.001310 -0.446689
0.11675584 1.13617682 -0.26648831 0.894688 0.001310 -0.446689
0.05179005 1.24561763 -0.39641988 0.894688 0.001310 -0.446689
0.16824655 1.25979292 -0.16350690 0.894688 0.001310 -0.446689
0.00327203 1.45808387 -0.49345595 0.894688 0.001310 -0.446689
0.24413213 1.16112900 -0.01173574 0.894688 0.001310 -0.446689
0.19246683 1.18746591 -0.11506635 0.894688 0.001310 -0.446689
0.20372866 1.28060639 -0.09254268 0.894688 0.001310 -0.446689
0.21597655 1.21152139 -0.06804690 0.894688 0.001310 -0.446689
0.20084502 1.00255799 -0.09830996 0.894688 0.001310 -0.446689
0.29922184 1.04958928 0.09844369 0.894688 0.001310 -0.446689
0.20109522 1.15730655 -0.09780955 0.894688 0.001310 -0.446689
0.06352482 1.41137743 -0.37295038 0.894688 0.001310 -0.446689
0.38770559 1.03057218 0.27541119 0.894688 0.001310 -0.446689
0.18771842 1.06464171 -0.12456316 0.894688 0.001310 -0.446689
0.19724530 1.07154655 -0.10550940 0.894688 0.001310 -0.446689
0.21244153 1.16745853 -0.07511693 0.894688 0.001310 -0.446689
0.00068154 1.08847046 -0.49863693 0.894688 0.001310 -0.446689
0.03927977 1.09180808 -0.42144045 0.894688 0.001310 -0.446689
0.32770357 1.10858631 0.15540713 0.894688 0.001310 -0.446689
0.03544430 1.35634279 -0.42911139 0.894688 0.001310 -0.446689
0.02964075 1.25765073 -0.44071850 0.894688 0.001310 -0.446689
0.09125169 1.21649885 -0.31749663 0.894688 0.001310 -0.446689
0.02451448 1.10901880 -0.45097104 0.894688 0.001310 -0.446689
0.16023006 1.14499855 -0.17953989 0.894688 0.001310 -0.446689
0.06743281 1.01382530 -0.36513439 0.894688 0.001310 -0.446689
0.17302650 1.28606558 -0.15394700 0.894688 0.001310 -0.446689
0.07484462 1.33454370 -0.35031074 0.894688 0.001310 -0.446689
0.40081480 1.05550206 0.30162960 0.894688 0.001310 -0.446689
0.05647977 1.09949684 -0.38704044 0.894688 0.001310 -0.446689
0.07045836 1.01212502 -0.35908329 0.894688 0.001310 -0.446689
0.24111493 1.09007752 -0.01777014 0.894688 0.001310 -0.446689
0.29637033 1.12127411 0.09274065 0.894688 0.001310 -0.446689
0.10835785 1.34042764 -0.28328431 0.894688 0.001310 -0.446689
0.29147410 1.04654288 0.08294821 0.894688 0.001310 -0.446689
0.32888067 1.16281605 0.15776134 0.894688 0.001310 -0.446689
0.22802068 1.11931276 -0.04395863 0.894688 0.001310 -0.446689
0.34009352 1.04469979 0.18018705 0.894688 0.001310 -0.446689
0.33920181 1.06999040 0.17840362 0.894688 0.001310 -0.446689
0.18937133 1.21502638 -0.12125733 0.894688 0.001310 -0.446689
0.14621286 1.04662919 -0.20757428 0.894688 0.001310 -0.446689
0.19576202 1.09454775 -0.10847595 0.894688 0.001310 -0.446689
0.12807424 1.13677502 -0.24385151 0.894688 0.001310 -0.446689
0.05150481 1.21884036 -0.39699039 0.894688 0.001310 -0.446689
0.13823144 1.31408656 -0.22353712 0.894688 0.001310 -0.446689
0.10386708 1.05195856 -0.29226583 0.894688 0.001310 -0.446689
0.01259679 1.42035031 -0.47480643 0.894688 0.001310 -0.446689
0.04084468 1.01962411 -0.41831064 0.894688 0.001310 -0.446689
0.32605198 1.10899913 0.15210396 0.894688 0.001310 -0.446689
0.21036990 1.03751087 -0.07926020 0.894688 0.001310 -0.446689
0.09440418 1.07896590 -0.31119162 0.894688 0.001310 -0.446689
0.17587356 1.11073542 -0.14825287 0.894688 0.001310 -0.446689
0.23191796 1.23415589 -0.03616408 0.894688 0.001310 -0.446689
0.08325587 1.04180670 -0.33348826 0.894688 0.001310 -0.446689
0.26185781 1.14760101 0.02371562 0.894688 0.001310 -0.446689
0.15200046 1.10511923 -0.19599909 0.894688 0.001310 -0.446689
0.14342654 1.32218587 -0.21314692 0.894688 0.001310 -0.446689
0.22783026 1.17356682 -0.04433948 0.894688 0.001310 -0.446689
0.12063453 1.05337143 -0.25873095 0.894688 0.001310 -0.446689
0.30806977 1.01607001 0.11613953 0.894688 0.001310 -0.446689
0.16255099 1.17836738 -0.17489803 0.894688 0.001310 -0.446689
0.11711511 1.10343432 -0.26576978 0.894688 0.001310 -0.446689
0.02529181 1.35807633 -0.44941640 0.894688 0.001310 -0.446689
0.22663379 1.03276515 -0.04673243 0.894688 0.001310 -0.446689
0.05691303 1.39281082 -0.38617393 0.894688 0.001310 -0.446689
0.05611013 1.27568293 -0.38777974 0.894688 0.001310 -0.446689
0.20432656 1.09528720 -0.09134689 0.894688 0.001310 -0.446689
0.24803871 1.06309080 -0.00392258 0.894688 0.001310 -0.446689
0.19941868 1.19197214 -0.10116264 0.894688 0.001310 -0.446689
0.00167076 1.36017394 -0.49665847 0.894688 0.001310 -0.446689
0.08168335 1.20746565 -0.33663329 0.894688 0.001310 -0.446689
0.03688565 1.37422407 -0.42622870 0.894688 0.001310 -0.446689
0.00769823 1.33859253 -0.48460355 0.894688 0.001310 -0.446689
0.15276787 1.03526735 -0.19446427 0.894688 0.001310 -0.446689
0.01892547 1.45554805 -0.46214908 0.894688 0.001310 -0.446689
0.00858569 1.48163486 -0.48282862 0.894688 0.001310 -0.446689
0.47505972 1.00162816 0.45011944 0.894688 0.001310 -0.446689
0.04271846 1.32857406 -0.41456309 0.894688 0.001310 -0.446689
0.28707868 1.14697790 0.07415736 0.894688 0.001310 -0.446689
0.11294343 1.29125690 -0.27411315 0.894688 0.001310 -0.446689
0.38858962 1.06995213 0.27717924 0.894688 0.001310 -0.446689
0.27747467 1.21052182 0.05494934 0.894688 0.001310 -0.446689
0.04496990 1.03124452 -0.41006020 0.894688 0.001310 -0.446689
0.42271250 1.03721070 0.34542501 0.894688 0.001310 -0.446689
0.01535975 1.22750676 -0.46928048 0.894688 0.001310 -0.446689
0.06226004 1.19031739 -0.37547991 0.894688 0.001310 -0.446689
0.36946219 1.01624203 0.23892438 0.894688 0.001310 -0.446689
0.01448917 1.06592488 -0.47102165 0.894688 0.001310 -0.446689
0.20429835 1.07604742 -0.09140331 0.894688 0.001310 -0.446689
0.36981037 1.11231852 0.23962075 0.894688 0.001310 -0.446689
0.17908086 1.10068655 -0.14183828 0.894688 0.001310 -0.446689
0.20363978 1.08220816 -0.09272045 0.894688 0.001310 -0.446689
0.15871291 1.07429671 -0.18257418 0.894688 0.001310 -0.446689
0.32657269 1.12925327 0.15314537 0.894688 0.001310 -0.446689
0.18332534 1.29680026 -0.13334933 0.894688 0.001310 -0.446689
0.04387869 1.17001677 -0.41224262 0.894688 0.001310 -0.446689
0.30025414 1.05294442 0.10050827 0.894688 0.001310 -0.446689
0.29327312 1.11326230 0.08654624 0.894688 0.001310 -0.446689
0.02967587 1.02624393 -0.44064826 0.894688 0.001310 -0.446689
0.02427185 1.45139992 -0.45145631 0.894688 0.001310 -0.446689
0.08298414 1.06832242 -0.33403170 0.894688 0.001310 -0.446689
0.31448948 1.10741234 0.12897897 0.894688 0.001310 -0.446689
0.19476861 1.02695799 -0.11046278 0.894688 0.001310 -0.446689
0.09308536 1.32505572 -0.31382927 0.894688 0.001310 -0.446689
0.01601201 1.24832964 -0.46797597 0.894688 0.001310 -0.446689
0.19915634 1.03904319 -0.10168731 0.894688 0.001310 -0.446689
0.05184780 1.00310576 -0.39630440 0.894688 0.001310 -0.446689
0.04279880 1.33912396 -0.41440240 0.894688 0.001310 -0.446689
0.15783697 1.23468423 -0.18432605 0.894688 0.001310 -0.446689
0.31703880 1.01070511 0.13407761 0.894688 0.001310 -0.446689
0.33816323 1.14805937 0.17632645 0.894688 0.001310 -0.446689
0.28683987 1.09435415 0.07367975 0.894688 0.001310 -0.446689
0.34311539 1.11723661 0.18623078 0.894688 0.001310 -0.446689
0.36256078 1.02130413 0.22512156 0.894688 0.001310 -0.446689
0.06342153 1.13717914 -0.37315696 0.894688 0.001310 -0.446689
0.06515320 1.24314857 -0.36969358 0.894688 0.001310 -0.446689
0.11344643 1.17384696 -0.27310714 0.894688 0.001310 -0.446689
0.22829498 1.21385372 -0.04341003 0.894688 0.001310 -0.446689
0.31077754 1.14637971 0.12155509 0.894688 0.001310 -0.446689
0.01210452 1.45824289 -0.47579095 0.894688 0.001310 -0.446689
0.12961477 1.19587529 -0.24077046 0.894688 0.001310 -0.446689
0.02351200 1.08351040 -0.45297599 0.894688 0.001310 -0.446689
0.24963917 1.10305130 -0.00072166 0.894688 0.001310 -0.446689
0.02672656 1.25378227 -0.44654688 0.894688 0.001310 -0.446689
0.16168407 1.22917116 -0.17663187 0.894688 0.001310 -0.446689
0.26036322 1.23077464 0.02072644 0.894688 0.001310 -0.446689
0.17532478 1.06824994 -0.14935043 0.894688 0.001310 -0.446689
0.01009090 1.26479459 -0.47981820 0.894688 0.001310 -0.446689
0.36048523 1.06083143 0.22097045 0.894688 0.001310 -0.446689
0.10306978 1.10128808 -0.29386044 0.894688 0.001310 -0.446689
0.29000908 1.12983537 0.08001816 0.894688 0.001310 -0.446689
0.08241298 1.29133189 -0.33517402 0.894688 0.001310 -0.446689
0.34710929 1.03646505 0.19421858 0.894688 0.001310 -0.446689
0.19854848 1.28129554 -0.10290304 0.894688 0.001310 -0.446689
0.25728095 1.00083256 0.01456189 0.894688 0.001310 -0.446689
0.22443539 1.18784142 -0.05112922 0.894688 0.001310 -0.446689
0.15586853 1.24744356 -0.18826294 0.894688 0.001310 -0.446689
0.17617223 1.29598022 -0.14765555 0.894688 0.001310 -0.446689
0.03962624 1.40094364 -0.42074752 0.894688 0.001310 -0.446689
0.16343810 1.23652124 -0.17312381 0.894688 0.001310 -0.446689
0.04267695 1.41794097 -0.41464609 0.894688 0.001310 -0.446689
0.10101473 1.10594726 -0.29797053 0.894688 0.001310 -0.446689
0.15994784 1.09675717 -0.18010432 0.894688 0.001310 -0.446689
0.00217211 1.40233743 -0.49565578 0.894688 0.001310 -0.446689
0.03413312 1.31897211 -0.43173376 0.894688 0.001310 -0.446689
