-0.00634619 0.39543146 -0.48730761 -0.894688 0.001310 -0.446689
-0.28602567 0.36571646 0.07205135 -0.894688 0.001310 -0.446689
-0.33318520 0.41972417 0.16637039 -0.894688 0.001310 -0.446689
-0.15459894 0.29316765 -0.19080213 -0.894688 0.001310 -0.446689
-0.00403595 0.24373171 -0.49192810 -0.894688 0.001310 -0.446689
-0.02833048 0.28233138 -0.44333905 -0.894688 0.001310 -0.446689
-0.07249993 0.17915627 -0.35500014 -0.894688 0.001310 -0.446689
-0.39103672 0.44957742 0.28207344 -0.894688 0.001310 -0.446689
-0.37392950 0.46018445 0.24785900 -0.894688 0.001310 -0.446689
-0.14703722 0.39010268 -0.20592555 -0.894688 0.001310 -0.446689
-0.29362398 0.40115657 0.08724797 -0.894688 0.001310 -0.446689
-0.12853950 0.38085538 -0.24292099 -0.894688 0.001310 -0.446689
-0.38958558 0.42633617 0.27917117 -0.894688 0.001310 -0.446689
-0.10414816 0.21296692 -0.29170370 -0.894688 0.001310 -0.446689
-0.03114715 0.19837028 -0.43770570 -0.894688 0.001310 -0.446689
-0.06091959 0.45353046 -0.37816080 -0.894688 0.001310 -0.446689
-0.35663673 0.36004335 0.21327347 -0.894688 0.001310 -0.446689
-0.42958698 0.46466792 0.35917395 -0.894688 0.001310 -0.446689
-0.03422010 0.29217666 -0.43155980 -0.894688 0.001310 -0.446689
-0.22018525 0.48001900 -0.05962950 -0.894688 0.001310 -0.446689
-0.33277807 0.41356063 0.16555613 -0.894688 0.001310 -0.446689
-0.00916876 0.46417966 -0.48166248 -0.894688 0.001310 -0.446689
-0.06615348 0.33939373 -0.36769304 -0.894688 0.001310 -0.446689
-0.28457591 0.39032036 0.06915182 -0.894688 0.001310 -0.446689
-0.29370180 0.49938872 0.08740360 -0.894688 0.001310 -0.446689
-0.12474028 0.49198651 -0.25051945 -0.894688 0.001310 -0.446689
-0.21277624 0.30509502 -0.07444751 -0.894688 0.001310 -0.446689
-0.07094946 0.15835416 -0.35810107 -0.894688 0.001310 -0.446689
-0.21810973 0.37540630 -0.06378055 -0.894688 0.001310 -0.446689
-0.09545602 0.33903521 -0.30908796 -0.894688 0.001310 -0.446689
-0.10787687 0.21146041 -0.28424627 -0.894688 0.001310 -0.446689
-0.08151349 0.18729854 -0.33697301 -0.894688 0.001310 -0.446689
-0.03293001 0.36801589 -0.43413997 -0.894688 0.001310 -0.446689
-0.37886405 0.45517570 0.25772810 -0.894688 0.001310 -0.446689
-0.05003588 0.31983995 -0.39992824 -0.894688 0.001310 -0.446689
-0.18591426 0.37603930 -0.12817147 -0.894688 0.001310 -0.446689
-0.03705997 0.41120839 -0.42588004 -0.894688 0.001310 -0.446689
-0.30523902 0.49602783 0.11047804 -0.894688 0.001310 -0.446689
-0.04713992 0.46813187 -0.40572017 -0.894688 0.001310 -0.446689
-0.12394673 0.36773890 -0.25210655 -0.894688 0.001310 -0.446689
-0.19723250 0.34998983 -0.10553500 -0.894688 0.001310 -0.446689
-0.02504438 0.48169899 -0.44991124 -0.894688 0.001310 -0.446689
-0.14611499 0.36365357 -0.20777002 -0.894688 0.001310 -0.446689
-0.06599890 0.34964961 -0.36800218 -0.894688 0.001310 -0.446689
-0.02810714 0.32575610 -0.44378573 -0.894688 0.001310 -0.446689
-0.10732118 0.11282098 -0.28535765 -0.894688 0.001310 -0.446689
-0.44792381 0.47953558 0.39584762 -0.894688 0.001310 -0.446689
-0.25505978 0.45943505 0.01011956 -0.894688 0.001310 -0.446689
-0.21562855 0.49170470 -0.06874290 -0.894688 0.001310 -0.446689
-0.11509071 0.31461304 -0.26981860 -0.894688 0.001310 -0.446689
-0.02811474 0.25613284 -0.44377053 -0.894688 0.001310 -0.446689
-0.13532774 0.46997592 -0.22934452 -0.894688 0.001310 -0.446689
-0.23077656 0.27664861 -0.03844687 -0.894688 0.001310 -0.446689
-0.27480567 0.39736429 0.04961133 -0.894688 0.001310 -0.446689
-0.10528765 0.24498892 -0.28942472 -0.894688 0.001310 -0.446689
-0.15724926 0.46571410 -0.18550149 -0.894688 0.001310 -0.446689
-0.32656813 0.33131540 0.15313625 -0.894688 0.001310 -0.446689
-0.10654378 0.34582931 -0.28691244 -0.894688 0.001310 -0.446689
-0.06763828 0.29813755 -0.36472344 -0.894688 0.001310 -0.446689
-0.00870825 0.49281818 -0.48258349 -0.894688 0.001310 -0.446689
-0.19602408 0.24214551 -0.10795185 -0.894688 0.001310 -0.446689
-0.26211897 0.39938599 0.02423793 -0.894688 0.001310 -0.446689
-0.10693175 0.26864052 -0.28613651 -0.894688 0.001310 -0.446689
-0.02922469 0.07922661 -0.44155061 -0.894688 0.001310 -0.446689
-0.02760424 0.40704039 -0.44479153 -0.894688 0.001310 -0.446689
-0.04229113 0.17667621 -0.41541773 -0.894688 0.001310 -0.446689
-0.14509973 0.45181653 -0.20980054 -0.894688 0.001310 -0.446689
-0.06655890 0.38070235 -0.36688221 -0.894688 0.001310 -0.446689
-0.29105192 0.36363852 0.08210385 -0.894688 0.001310 -0.446689
-0.08054551 0.15274897 -0.33890897 -0.894688 0.001310 -0.446689
-0.27344236 0.31504893 0.04688472 -0.894688 0.001310 -0.446689
-0.22125684 0.47167945 -0.05748633 -0.894688 0.001310 -0.446689
-0.11397114 0.32871920 -0.27205771 -0.894688 0.001310 -0.446689
-0.07108407 0.19809556 -0.35783184 -0.894688 0.001310 -0.446689
-0.15314215 0.47362888 -0.19371569 -0.894688 0.001310 -0.446689
-0.39665541 0.45512652 0.29331082 -0.894688 0.001310 -0.446689
-0.08517260 0.27936596 -0.32965481 -0.894688 0.001310 -0.446689
-0.11537954 0.34201437 -0.26924092 -0.894688 0.001310 -0.446689
-0.17616409 0.40456676 -0.14767182 -0.894688 0.001310 -0.446689
-0.08833817 0.36543986 -0.32332367 -0.894688 0.001310 -0.446689
-0.28357038 0.41119090 0.06714076 -0.894688 0.001310 -0.446689
-0.19025685 0.30806568 -0.11948630 -0.894688 0.001310 -0.446689
-0.00116797 0.22933060 -0.49766406 -0.894688 0.001310 -0.446689
-0.26073176 0.34069228 0.02146351 -0.894688 0.001310 -0.446689
-0.22637694 0.43669504 -0.04724613 -0.894688 0.001310 -0.446689
-0.34573948 0.40933296 0.19147897 -0.894688 0.001310 -0.446689
-0.47214931 0.47424707 0.44429862 -0.894688 0.001310 -0.446689
-0.03234655 0.47016168 -0.43530691 -0.894688 0.001310 -0.446689
-0.01177119 0.25823882 -0.47645763 -0.894688 0.001310 -0.446689
-0.16627195 0.22973964 -0.16745609 -0.894688 0.001310 -0.446689
-0.01941857 0.29206714 -0.46116287 -0.894688 0.001310 -0.446689
-0.09194712 0.22348389 -0.31610575 -0.894688 0.001310 -0.446689
-0.13667154 0.38100621 -0.22665691 -0.894688 0.001310 -0.446689
-0.15449572 0.31544811 -0.19100857 -0.894688 0.001310 -0.446689
-0.10132726 0.43422633 -0.29734546 -0.894688 0.001310 -0.446689
-0.21276997 0.28848493 -0.07446006 -0.894688 0.001310 -0.446689
-0.14937612 0.36319801 -0.20124775 -0.894688 0.001310 -0.446689
-0.08853782 0.33402091 -0.32292438 -0.894688 0.001310 -0.446689
-0.30111188 0.37196580 0.10222375 -0.894688 0.001310 -0.446689
-0.08033976 0.26382238 -0.33932048 -0.894688 0.001310 -0.446689
-0.08494169 0.17846584 -0.33011663 -0.894688 0.001310 -0.446689
-0.04831214 0.40716803 -0.40337572 -0.894688 0.001310 -0.446689
-0.10753030 0.29413903 -0.28493941 -0.894688 0.001310 -0.446689
-0.35698825 0.36113632 0.21397650 -0.894688 0.001310 -0.446689
-0.34474975 0.48001471 0.18949950 -0.894688 0.001310 -0.446689
-0.18128209 0.28705251 -0.13743582 -0.894688 0.001310 -0.446689
-0.00728127 0.11371171 -0.48543745 -0.894688 0.001310 -0.446689
-0.19452637 0.23779267 -0.11094725 -0.894688 0.001310 -0.446689
-0.17354397 0.49647906 -0.15291205 -0.894688 0.001310 -0.446689
-0.35569337 0.45337698 0.21138674 -0.894688 0.001310 -0.446689
-0.09348720 0.18893376 -0.31302559 -0.894688 0.001310 -0.446689
-0.30370522 0.36158922 0.10741043 -0.894688 0.001310 -0.446689
-0.39284873 0.45454824 0.28569746 -0.894688 0.001310 -0.446689
-0.13838701 0.31052184 -0.22322598 -0.894688 0.001310 -0.446689
-0.02420541 0.24492189 -0.45158917 -0.894688 0.001310 -0.446689
-0.10604182 0.32236367 -0.28791636 -0.894688 0.001310 -0.446689
-0.10025211 0.35049838 -0.29949579 -0.894688 0.001310 -0.446689
-0.25994402 0.41085231 0.01988804 -0.894688 0.001310 -0.446689
-0.09702000 0.21346855 -0.30596000 -0.894688 0.001310 -0.446689
-0.40246782 0.41229376 0.30493563 -0.894688 0.001310 -0.446689
-0.21759978 0.44095862 -0.06480044 -0.894688 0.001310 -0.446689
-0.16655096 0.43604004 -0.16689807 -0.894688 0.001310 -0.446689
-0.30778319 0.38994268 0.11556637 -0.894688 0.001310 -0.446689
-0.06502277 0.26892889 -0.36995447 -0.894688 0.001310 -0.446689
-0.18499060 0.32490152 -0.13001880 -0.894688 0.001310 -0.446689
-0.38428593 0.41557646 0.26857185 -0.894688 0.001310 -0.446689
-0.33450505 0.43813694 0.16901010 -0.894688 0.001310 -0.446689
-0.41605231 0.48319495 0.33210462 -0.894688 0.001310 -0.446689
-0.16029619 0.22307134 -0.17940763 -0.894688 0.001310 -0.446689
-0.04618914 0.41164878 -0.40762174 -0.894688 0.001310 -0.446689
-0.12281574 0.31727707 -0.25436854 -0.894688 0.001310 -0.446689
-0.02503816 0.49698240 -0.44992369 -0.894688 0.001310 -0.446689
-0.04994224 0.10165077 -0.40011552 -0.894688 0.001310 -0.446689
-0.12248735 0.38459107 -0.25502530 -0.894688 0.001310 -0.446689
-0.01227779 0.37024015 -0.47544444 -0.894688 0.001310 -0.446689
-0.06449806 0.31153250 -0.37100387 -0.894688 0.001310 -0.446689
-0.02878234 0.45882994 -0.44243532 -0.894688 0.001310 -0.446689
-0.06861814 0.07031077 -0.36276370 -0.894688 0.001310 -0.446689
-0.21891025 0.41885635 -0.06217951 -0.894688 0.001310 -0.446689
-0.37617087 0.49311167 0.25234175 -0.894688 0.001310 -0.446689
-0.17302576 0.18121064 -0.15394849 -0.894688 0.001310 -0.446689
-0.03537950 0.09238973 -0.42924100 -0.894688 0.001310 -0.446689
-0.13189982 0.36532784 -0.23620036 -0.894688 0.001310 -0.446689
-0.11127101 0.36515075 -0.27745798 -0.894688 0.001310 -0.446689
-0.02541101 0.09088492 -0.44917798 -0.894688 0.001310 -0.446689
-0.27221438 0.49285597 0.04442877 -0.894688 0.001310 -0.446689
-0.36933389 0.46735311 0.23866779 -0.894688 0.001310 -0.446689
-0.32869399 0.49579632 0.15738797 -0.894688 0.001310 -0.446689
-0.05062447 0.44402620 -0.39875105 -0.894688 0.001310 -0.446689
-0.26846990 0.34003836 0.03693980 -0.894688 0.001310 -0.446689
-0.18033709 0.28139311 -0.13932583 -0.894688 0.001310 -0.446689
-0.04385542 0.24232668 -0.41228914 -0.894688 0.001310 -0.446689
-0.11449806 0.26651654 -0.27100390 -0.894688 0.001310 -0.446689
-0.07122003 0.35503694 -0.35755995 -0.894688 0.001310 -0.446689
-0.14091070 0.36245281 -0.21817860 -0.894688 0.001310 -0.446689
-0.13437930 0.49468863 -0.23124141 -0.894688 0.001310 -0.446689
-0.22041547 0.43488085 -0.05916905 -0.894688 0.001310 -0.446689
-0.32921696 0.44092911 0.15843391 -0.894688 0.001310 -0.446689
-0.03551142 0.14266965 -0.42897716 -0.894688 0.001310 -0.446689
-0.02772374 0.20817450 -0.44455251 -0.894688 0.001310 -0.446689
-0.09646803 0.13119426 -0.30706394 -0.894688 0.001310 -0.446689
-0.20270741 0.34547895 -0.09458518 -0.894688 0.001310 -0.446689
-0.09876360 0.24432769 -0.30247280 -0.894688 0.001310 -0.446689
-0.09659620 0.31289229 -0.30680758 -0.894688 0.001310 -0.446689
-0.05701269 0.23319879 -0.38597462 -0.894688 0.001310 -0.446689
-0.48383424 0.48720908 0.46766847 -0.894688 0.001310 -0.446689
-0.41112486 0.46543837 0.32224971 -0.894688 0.001310 -0.446689
-0.44813722 0.49360943 0.39627445 -0.894688 0.001310 -0.446689
-0.29465309 0.33072117 0.08930618 -0.894688 0.001310 -0.446689
-0.26872167 0.40447077 0.03744334 -0.894688 0.001310 -0.446689
-0.20344050 0.41459507 -0.09311900 -0.894688 0.001310 -0.446689
-0.45330769 0.46822932 0.40661538 -0.894688 0.001310 -0.446689
-0.07214151 0.33805868 -0.35571700 -0.894688 0.001310 -0.446689
-0.17360158 0.19328514 -0.15279683 -0.894688 0.001310 -0.446689
-0.26724470 0.48431149 0.03448939 -0.894688 0.001310 -0.446689
-0.06193522 0.28313079 -0.37612957 -0.894688 0.001310 -0.446689
-0.06001382 0.06363720 -0.37997234 -0.894688 0.001310 -0.446689
-0.22120592 0.41373849 -0.05758816 -0.894688 0.001310 -0.446689
-0.38053387 0.49272868 0.26106775 -0.894688 0.001310 -0.446689
-0.07344240 0.09805650 -0.35311520 -0.894688 0.001310 -0.446689
-0.19251031 0.43921635 -0.11497939 -0.894688 0.001310 -0.446689
-0.21237734 0.44046837 -0.07524532 -0.894688 0.001310 -0.446689
-0.40641645 0.42886743 0.31283289 -0.894688 0.001310 -0.446689
-0.11021137 0.11379284 -0.27957726 -0.894688 0.001310 -0.446689
-0.25947124 0.44736162 0.01894248 -0.894688 0.001310 -0.446689
-0.20675285 0.21370488 -0.08649430 -0.894688 0.001310 -0.446689
-0.20228988 0.31503418 -0.09542024 -0.894688 0.001310 -0.446689
-0.23411494 0.29158074 -0.03177011 -0.894688 0.001310 -0.446689
-0.03076038 0.45262289 -0.43847924 -0.894688 0.001310 -0.446689
-0.02039009 0.21929353 -0.45921981 -0.894688 0.001310 -0.446689
-0.07533293 0.31806305 -0.34933412 -0.894688 0.001310 -0.446689
-0.14210007 0.15315652 -0.21579987 -0.894688 0.001310 -0.446689
-0.32408905 0.37270904 0.14817810 -0.894688 0.001310 -0.446689
-0.02087981 0.38674450 -0.45824036 -0.894688 0.001310 -0.446689
-0.19559447 0.38825056 -0.10881105 -0.894688 0.001310 -0.446689
-0.03477142 0.44381535 -0.43045714 -0.894688 0.001310 -0.446689
-0.35846460 0.39802080 0.21692920 -0.894688 0.001310 -0.446689
-0.11706376 0.43327639 -0.26587248 -0.894688 0.001310 -0.446689
-0.00262086 0.48899066 -0.49475828 -0.894688 0.001310 -0.446689
-0.22485311 0.22558042 -0.05029377 -0.894688 0.001310 -0.446689
-0.27157950 0.46098760 0.04315901 -0.894688 0.001310 -0.446689
-0.30087507 0.44612724 0.10175014 -0.894688 0.001310 -0.446689
-0.21263772 0.27715945 -0.07472456 -0.894688 0.001310 -0.446689
-0.12145771 0.35837445 -0.25708458 -0.894688 0.001310 -0.446689
-0.25640935 0.35169253 0.01281869 -0.894688 0.001310 -0.446689
-0.19544372 0.44217417 -0.10911256 -0.894688 0.001310 -0.446689
-0.05082338 0.47400683 -0.39835325 -0.894688 0.001310 -0.446689
-0.15028366 0.36397475 -0.19943267 -0.894688 0.001310 -0.446689
-0.26434320 0.28924513 0.02868640 -0.894688 0.001310 -0.446689
-0.13781345 0.14424315 -0.22437310 -0.894688 0.001310 -0.446689
-0.01888762 0.43172592 -0.46222475 -0.894688 0.001310 -0.446689
-0.15141480 0.16183460 -0.19717041 -0.894688 0.001310 -0.446689
-0.08627518 0.29526240 -0.32744965 -0.894688 0.001310 -0.446689
-0.20886987 0.23872009 -0.08226025 -0.894688 0.001310 -0.446689
-0.15225977 0.41713393 -0.19548047 -0.894688 0.001310 -0.446689
-0.06901747 0.21881205 -0.36196506 -0.894688 0.001310 -0.446689
-0.08432141 0.23150930 -0.33135718 -0.894688 0.001310 -0.446689
-0.24941143 0.25990102 -0.00117713 -0.894688 0.001310 -0.446689
-0.20104389 0.27095005 -0.09791222 -0.894688 0.001310 -0.446689
-0.20039386 0.44650382 -0.09921229 -0.894688 0.001310 -0.446689
-0.16340452 0.46631837 -0.17319095 -0.894688 0.001310 -0.446689
-0.13719837 0.24912849 -0.22560325 -0.894688 0.001310 -0.446689
-0.06810674 0.28191996 -0.36378652 -0.894688 0.001310 -0.446689
-0.09321606 0.49575761 -0.31356788 -0.894688 0.001310 -0.446689
-0.32568181 0.45907435 0.15136361 -0.894688 0.001310 -0.446689
-0.20646784 0.34050590 -0.08706433 -0.894688 0.001310 -0.446689
-0.07110135 0.41927865 -0.35779732 -0.894688 0.001310 -0.446689
-0.39682543 0.48542625 0.29365087 -0.894688 0.001310 -0.446689
-0.11037840 0.34522438 -0.27924320 -0.894688 0.001310 -0.446689
-0.20190281 0.29080641 -0.09619439 -0.894688 0.001310 -0.446689
-0.11211161 0.30124795 -0.27577680 -0.894688 0.001310 -0.446689
-0.04440352 0.12677762 -0.41119295 -0.894688 0.001310 -0.446689
-0.32137188 0.41710499 0.14274377 -0.894688 0.001310 -0.446689
-0.03631637 0.18535414 -0.42736727 -0.894688 0.001310 -0.446689
-0.29384479 0.48745173 0.08768958 -0.894688 0.001310 -0.446689
-0.03584285 0.27106375 -0.42831430 -0.894688 0.001310 -0.446689
-0.17086320 0.29836571 -0.15827361 -0.894688 0.001310 -0.446689
-0.22067767 0.30932170 -0.05864465 -0.894688 0.001310 -0.446689
-0.20180547 0.41634262 -0.09638906 -0.894688 0.001310 -0.446689
-0.25690970 0.31139725 0.01381940 -0.894688 0.001310 -0.446689
-0.35580102 0.46100622 0.21160203 -0.894688 0.001310 -0.446689
-0.05188224 0.25314772 -0.39623553 -0.894688 0.001310 -0.446689
-0.04603024 0.06281915 -0.40793952 -0.894688 0.001310 -0.446689
-0.10634463 0.47528759 -0.28731072 -0.894688 0.001310 -0.446689
-0.05833554 0.24501514 -0.38332891 -0.894688 0.001310 -0.446689
-0.08142278 0.41019085 -0.33715445 -0.894688 0.001310 -0.446689
-0.14003806 0.17337009 -0.21992388 -0.894688 0.001310 -0.446689
-0.43001232 0.48242059 0.36002463 -0.894688 0.001310 -0.446689
-0.00085497 0.01000839 -0.49829006 -0.894688 0.001310 -0.446689
-0.32573608 0.44245932 0.15147215 -0.894688 0.001310 -0.446689
-0.33910024 0.43864733 0.17820048 -0.894688 0.001310 -0.446689
-0.17090972 0.21418321 -0.15818056 -0.894688 0.001310 -0.446689
-0.14784621 0.28057408 -0.20430759 -0.894688 0.001310 -0.446689
-0.11862034 0.27962729 -0.26275933 -0.894688 0.001310 -0.446689
-0.35850587 0.44259086 0.21701175 -0.894688 0.001310 -0.446689
-0.24065845 0.32408798 -0.01868311 -0.894688 0.001310 -0.446689
-0.03438287 0.31227362 -0.43123424 -0.894688 0.001310 -0.446689
-0.42004439 0.47764608 0.34008878 -0.894688 0.001310 -0.446689
-0.06734090 0.49563867 -0.36531818 -0.894688 0.001310 -0.446689
-0.03460855 0.38754049 -0.43078288 -0.894688 0.001310 -0.446689
-0.24263927 0.32550412 -0.01472145 -0.894688 0.001310 -0.446689
-0.20084038 0.45506835 -0.09831923 -0.894688 0.001310 -0.446689
-0.32469067 0.43425655 0.14938134 -0.894688 0.001310 -0.446689
-0.41692537 0.42380625 0.33385074 -0.894688 0.001310 -0.446689
-0.23871607 0.32607353 -0.02256787 -0.894688 0.001310 -0.446689
-0.13424717 0.16281769 -0.23150566 -0.894688 0.001310 -0.446689
-0.29546985 0.31302702 0.09093970 -0.894688 0.001310 -0.446689
-0.14743473 0.45580831 -0.20513055 -0.894688 0.001310 -0.446689
-0.04697710 0.28815091 -0.40604579 -0.894688 0.001310 -0.446689
-0.03447678 0.34431645 -0.43104643 -0.894688 0.001310 -0.446689
-0.04909841 0.26069796 -0.40180317 -0.894688 0.001310 -0.446689
-0.33742088 0.41924784 0.17484176 -0.894688 0.001310 -0.446689
-0.32766238 0.41994137 0.15532476 -0.894688 0.001310 -0.446689
-0.16035143 0.44353336 -0.17929715 -0.894688 0.001310 -0.446689
-0.28602725 0.41274786 0.07205451 -0.894688 0.001310 -0.446689
-0.28216287 0.39869797 0.06432575 -0.894688 0.001310 -0.446689
-0.12439858 0.35176691 -0.25120282 -0.894688 0.001310 -0.446689
-0.16273074 0.16330811 -0.17453852 -0.894688 0.001310 -0.446689
-0.25556374 0.39277008 0.01112747 -0.894688 0.001310 -0.446689
-0.24633639 0.45921350 -0.00732723 -0.894688 0.001310 -0.446689
-0.00313863 0.09034312 -0.49372274 -0.894688 0.001310 -0.446689
-0.19030213 0.25030294 -0.11939573 -0.894688 0.001310 -0.446689
-0.11301719 0.21459293 -0.27396560 -0.894688 0.001310 -0.446689
-0.17037119 0.48104259 -0.15925762 -0.894688 0.001310 -0.446689
-0.07862379 0.10802805 -0.34275243 -0.894688 0.001310 -0.446689
-0.18024260 0.28806895 -0.13951480 -0.894688 0.001310 -0.446689
-0.45055076 0.47344407 0.40110153 -0.894688 0.001310 -0.446689
-0.01533179 0.49259242 -0.46933642 -0.894688 0.001310 -0.446689
-0.07231789 0.41758215 -0.35536420 -0.894688 0.001310 -0.446689
-0.13221672 0.27982360 -0.23556656 -0.894688 0.001310 -0.446689
-0.44263509 0.46292335 0.38527018 -0.894688 0.001310 -0.446689
-0.35721603 0.40626076 0.21443206 -0.894688 0.001310 -0.446689
-0.19781536 0.31589073 -0.10436928 -0.894688 0.001310 -0.446689
-0.10690356 0.32555765 -0.28619289 -0.894688 0.001310 -0.446689
-0.34913018 0.48735490 0.19826037 -0.894688 0.001310 -0.446689
-0.03141465 0.11491036 -0.43717068 -0.894688 0.001310 -0.446689
-0.10512968 0.27511954 -0.28974062 -0.894688 0.001310 -0.446689
-0.20250258 0.34183204 -0.09499484 -0.894688 0.001310 -0.446689
-0.05846943 0.21840549 -0.38306114 -0.894688 0.001310 -0.446689
-0.09397244 0.35560852 -0.31205511 -0.894688 0.001310 -0.446689
-0.04102880 0.13595563 -0.41794240 -0.894688 0.001310 -0.446689
-0.27004495 0.38388252 0.04008991 -0.894688 0.001310 -0.446689
-0.28677279 0.29394290 0.07354558 -0.894688 0.001310 -0.446689
-0.10960890 0.35550946 -0.28078222 -0.894688 0.001310 -0.446689
-0.34233832 0.40836370 0.18467665 -0.894688 0.001310 -0.446689
-0.22678477 0.40073586 -0.04643047 -0.894688 0.001310 -0.446689
-0.08313021 0.34419668 -0.33373958 -0.894688 0.001310 -0.446689
-0.03301609 0.27194297 -0.43396783 -0.894688 0.001310 -0.446689
-0.08563282 0.33720773 -0.32873434 -0.894688 0.001310 -0.446689
-0.06350967 0.13646951 -0.37298065 -0.894688 0.001310 -0.446689
-0.04345432 0.35972551 -0.41309136 -0.894688 0.001310 -0.446689
-0.28970280 0.28979155 0.07940561 -0.894688 0.001310 -0.446689
-0.28703883 0.42004859 0.07407767 -0.894688 0.001310 -0.446689
-0.03989289 0.15195939 -0.42021424 -0.894688 0.001310 -0.446689
-0.42360094 0.45244902 0.34720188 -0.894688 0.001310 -0.446689
-0.02821308 0.15463841 -0.44357383 -0.894688 0.001310 -0.446689
-0.11138928 0.29612580 -0.27722144 -0.894688 0.001310 -0.446689
-0.30903399 0.46573213 0.11806798 -0.894688 0.001310 -0.446689
-0.27445143 0.45340064 0.04890287 -0.894688 0.001310 -0.446689
-0.39011896 0.42328691 0.28023791 -0.894688 0.001310 -0.446689
-0.32268134 0.33243018 0.14536268 -0.894688 0.001310 -0.446689
-0.03876740 0.44856691 -0.42246521 -0.894688 0.001310 -0.446689
-0.24695344 0.34966809 -0.00609311 -0.894688 0.001310 -0.446689
-0.11079811 0.28758448 -0.27840376 -0.894688 0.001310 -0.446689
-0.04580316 0.48437062 -0.40839368 -0.894688 0.001310 -0.446689
-0.04064390 0.09122172 -0.41871220 -0.894688 0.001310 -0.446689
-0.39749658 0.46632630 0.29499316 -0.894688 0.001310 -0.446689
-0.04121910 0.16132146 -0.41756180 -0.894688 0.001310 -0.446689
-0.11880794 0.25257337 -0.26238412 -0.894688 0.001310 -0.446689
-0.00681176 0.23514846 -0.48637646 -0.894688 0.001310 -0.446689
-0.00929125 0.23839188 -0.48141751 -0.894688 0.001310 -0.446689
-0.06720372 0.47048211 -0.36559254 -0.894688 0.001310 -0.446689
-0.04412342 0.49624646 -0.41175315 -0.894688 0.001310 -0.446689
-0.12695168 0.34109586 -0.24609664 -0.894688 0.001310 -0.446689
-0.42644963 0.47066131 0.35289925 -0.894688 0.001310 -0.446689
-0.01743499 0.14097506 -0.46513003 -0.894688 0.001310 -0.446689
-0.10659024 0.18556902 -0.28681952 -0.894688 0.001310 -0.446689
-0.36135304 0.40011561 0.22270608 -0.894688 0.001310 -0.446689
-0.29844728 0.42949224 0.09689456 -0.894688 0.001310 -0.446689
-0.32317588 0.47474506 0.14635175 -0.894688 0.001310 -0.446689
-0.07369890 0.21918479 -0.35260218 -0.894688 0.001310 -0.446689
-0.24255137 0.45452946 -0.01489726 -0.894688 0.001310 -0.446689
-0.42260838 0.43688518 0.34521675 -0.894688 0.001310 -0.446689
-0.33460405 0.47466829 0.16920811 -0.894688 0.001310 -0.446689
-0.23671339 0.24986970 -0.02657321 -0.894688 0.001310 -0.446689
-0.30071190 0.35947204 0.10142380 -0.894688 0.001310 -0.446689
-0.23070511 0.34774274 -0.03858978 -0.894688 0.001310 -0.446689
-0.25742096 0.37464395 0.01484191 -0.894688 0.001310 -0.446689
-0.43357140 0.43400219 0.36714280 -0.894688 0.001310 -0.446689
-0.00015477 0.13142401 -0.49969047 -0.894688 0.001310 -0.446689
-0.14662524 0.34090734 -0.20674953 -0.894688 0.001310 -0.446689
-0.26481780 0.38379827 0.02963561 -0.894688 0.001310 -0.446689
-0.35412562 0.39628735 0.20825124 -0.894688 0.001310 -0.446689
-0.04424373 0.22774383 -0.41151252 -0.894688 0.001310 -0.446689
-0.36858642 0.46249989 0.23717284 -0.894688 0.001310 -0.446689
-0.22484703 0.45625836 -0.05030593 -0.894688 0.001310 -0.446689
-0.06561101 0.31478351 -0.36877799 -0.894688 0.001310 -0.446689
-0.18697378 0.30778763 -0.12605244 -0.894688 0.001310 -0.446689
-0.17051731 0.48336077 -0.15896538 -0.894688 0.001310 -0.446689
-0.18748286 0.21959981 -0.12503427 -0.894688 0.001310 -0.446689
-0.06459159 0.11260843 -0.37081683 -0.894688 0.001310 -0.446689
-0.02247753 0.16044760 -0.45504493 -0.894688 0.001310 -0.446689
-0.22700343 0.25391829 -0.04599315 -0.894688 0.001310 -0.446689
-0.02098847 0.44601953 -0.45802307 -0.894688 0.001310 -0.446689
-0.31501374 0.42956233 0.13002747 -0.894688 0.001310 -0.446689
-0.25891769 0.39178124 0.01783538 -0.894688 0.001310 -0.446689
-0.05651991 0.25798064 -0.38696018 -0.894688 0.001310 -0.446689
-0.20531017 0.40193850 -0.08937967 -0.894688 0.001310 -0.446689
-0.11897333 0.38683152 -0.26205334 -0.894688 0.001310 -0.446689
-0.45471480 0.49900621 0.40942961 -0.894688 0.001310 -0.446689
-0.27922127 0.37296367 0.05844253 -0.894688 0.001310 -0.446689
-0.06253208 0.14114565 -0.37493584 -0.894688 0.001310 -0.446689
-0.00776387 0.39827931 -0.48447227 -0.894688 0.001310 -0.446689
-0.12770170 0.23935652 -0.24459660 -0.894688 0.001310 -0.446689
-0.02862237 0.36268318 -0.44275525 -0.894688 0.001310 -0.446689
-0.10008305 0.38581634 -0.29983389 -0.894688 0.001310 -0.446689
-0.05060523 0.47187257 -0.39878953 -0.894688 0.001310 -0.446689
-0.15317377 0.17512894 -0.19365245 -0.894688 0.001310 -0.446689
-0.16588937 0.46814644 -0.16822127 -0.894688 0.001310 -0.446689
-0.48363841 0.48674196 0.46727681 -0.894688 0.001310 -0.446689
-0.01143756 0.44822919 -0.47712490 -0.894688 0.001310 -0.446689
-0.03555640 0.40315604 -0.42888719 -0.894688 0.001310 -0.446689
-0.13194737 0.45294771 -0.23610526 -0.894688 0.001310 -0.446689
-0.08712737 0.16860089 -0.32574528 -0.894688 0.001310 -0.446689
-0.01997641 0.39581069 -0.46004719 -0.894688 0.001310 -0.446689
-0.21539989 0.43783534 -0.06920022 -0.894688 0.001310 -0.446689
-0.13627551 0.18815148 -0.22744897 -0.894688 0.001310 -0.446689
-0.25416228 0.34227186 0.00832456 -0.894688 0.001310 -0.446689
-0.08405942 0.20478037 -0.33188117 -0.894688 0.001310 -0.446689
-0.15598194 0.25372612 -0.18803611 -0.894688 0.001310 -0.446689
-0.06321213 0.30902356 -0.37357575 -0.894688 0.001310 -0.446689
-0.15337995 0.20750046 -0.19324011 -0.894688 0.001310 -0.446689
-0.11482343 0.46567106 -0.27035314 -0.894688 0.001310 -0.446689
-0.12973426 0.13105038 -0.24053147 -0.894688 0.001310 -0.446689
-0.30967817 0.43254381 0.11935633 -0.894688 0.001310 -0.446689
-0.47462162 0.48472717 0.44924325 -0.894688 0.001310 -0.446689
-0.33307883 0.35109985 0.16615766 -0.894688 0.001310 -0.446689
-0.02441202 0.14788130 -0.45117596 -0.894688 0.001310 -0.446689
-0.09085846 0.40896714 -0.31828308 -0.894688 0.001310 -0.446689
-0.00915036 0.44163960 -0.48169929 -0.894688 0.001310 -0.446689
-0.07064107 0.49223980 -0.35871786 -0.894688 0.001310 -0.446689
-0.08903140 0.30695766 -0.32193720 -0.894688 0.001310 -0.446689
-0.03969817 0.29786968 -0.42060366 -0.894688 0.001310 -0.446689
-0.14617176 0.42959177 -0.20765647 -0.894688 0.001310 -0.446689
-0.18552338 0.39911577 -0.12895325 -0.894688 0.001310 -0.446689
-0.49109834 0.49315092 0.48219669 -0.894688 0.001310 -0.446689
-0.32819629 0.46729848 0.15639257 -0.894688 0.001310 -0.446689
-0.07330809 0.18752530 -0.35338384 -0.894688 0.001310 -0.446689
-0.29212612 0.37612599 0.08425224 -0.894688 0.001310 -0.446689
-0.28867799 0.43369970 0.07735598 -0.894688 0.001310 -0.446689
-0.03766175 0.49220246 -0.42467651 -0.894688 0.001310 -0.446689
-0.22690931 0.37237629 -0.04618138 -0.894688 0.001310 -0.446689
-0.07889531 0.48831540 -0.34220940 -0.894688 0.001310 -0.446689
-0.15119664 0.45717984 -0.19760671 -0.894688 0.001310 -0.446689
-0.05820831 0.09095412 -0.38358340 -0.894688 0.001310 -0.446689
-0.11062553 0.33944994 -0.27874893 -0.894688 0.001310 -0.446689
-0.28876334 0.35336024 0.07752669 -0.894688 0.001310 -0.446689
-0.21719737 0.35165825 -0.06560525 -0.894688 0.001310 -0.446689
-0.28112939 0.46933201 0.06225878 -0.894688 0.001310 -0.446689
-0.15755513 0.32967085 -0.18488973 -0.894688 0.001310 -0.446689
-0.46791640 0.48133385 0.43583280 -0.894688 0.001310 -0.446689
-0.42843449 0.48089245 0.35686898 -0.894688 0.001310 -0.446689
-0.19022191 0.25563741 -0.11955619 -0.894688 0.001310 -0.446689
-0.43498823 0.45561653 0.36997646 -0.894688 0.001310 -0.446689
-0.05954847 0.20964658 -0.38090307 -0.894688 0.001310 -0.446689
-0.02517365 0.44936782 -0.44965270 -0.894688 0.001310 -0.446689
-0.06602772 0.46938282 -0.36794454 -0.894688 0.001310 -0.446689
-0.18742386 0.27758241 -0.12515229 -0.894688 0.001310 -0.446689
-0.18314376 0.37705982 -0.13371247 -0.894688 0.001310 -0.446689
-0.19703914 0.46226427 -0.10592172 -0.894688 0.001310 -0.446689
-0.11023528 0.41600412 -0.27952945 -0.894688 0.001310 -0.446689
-0.18209845 0.40586096 -0.13580310 -0.894688 0.001310 -0.446689
-0.16459280 0.45066285 -0.17081439 -0.894688 0.001310 -0.446689
-0.03914492 0.22076571 -0.42171016 -0.894688 0.001310 -0.446689
-0.05473598 0.31222674 -0.39052802 -0.894688 0.001310 -0.446689
-0.41129988 0.48818597 0.32259977 -0.894688 0.001310 -0.446689
-0.23270661 0.46396965 -0.03458679 -0.894688 0.001310 -0.446689
-0.31068763 0.36936158 0.12137526 -0.894688 0.001310 -0.446689
-0.00184289 0.26412863 -0.49631423 -0.894688 0.001310 -0.446689
-0.01861979 0.05695182 -0.46276042 -0.894688 0.001310 -0.446689
-0.25548786 0.37292260 0.01097572 -0.894688 0.001310 -0.446689
-0.02844950 0.25408226 -0.44310099 -0.894688 0.001310 -0.446689
-0.26286846 0.40176827 0.02573693 -0.894688 0.001310 -0.446689
-0.13249315 0.34755027 -0.23501369 -0.894688 0.001310 -0.446689
-0.32161340 0.46453777 0.14322680 -0.894688 0.001310 -0.446689
-0.13902861 0.44118834 -0.22194278 -0.894688 0.001310 -0.446689
-0.04121337 0.11893091 -0.41757324 -0.894688 0.001310 -0.446689
-0.34991455 0.45787221 0.19982910 -0.894688 0.001310 -0.446689
-0.09204245 0.36231321 -0.31591511 -0.894688 0.001310 -0.446689
-0.12104649 0.15471712 -0.25790703 -0.894688 0.001310 -0.446689
-0.12196290 0.42717624 -0.25607419 -0.894688 0.001310 -0.446689
-0.01056353 0.19184804 -0.47887295 -0.894688 0.001310 -0.446689
-0.18653603 0.36095914 -0.12692794 -0.894688 0.001310 -0.446689
-0.23244657 0.38904816 -0.03510687 -0.894688 0.001310 -0.446689
-0.17640117 0.41924548 -0.14719766 -0.894688 0.001310 -0.446689
-0.40434918 0.41831118 0.30869836 -0.894688 0.001310 -0.446689
-0.10036302 0.23511732 -0.29927397 -0.894688 0.001310 -0.446689
-0.31787246 0.33219984 0.13574493 -0.894688 0.001310 -0.446689
-0.36133853 0.43281654 0.22267705 -0.894688 0.001310 -0.446689
-0.04886171 0.33379576 -0.40227658 -0.894688 0.001310 -0.446689
-0.27795646 0.28743520 0.05591291 -0.894688 0.001310 -0.446689
-0.02452637 0.28472406 -0.45094725 -0.894688 0.001310 -0.446689
-0.33449289 0.38163188 0.16898578 -0.894688 0.001310 -0.446689
-0.44480723 0.49776858 0.38961446 -0.894688 0.001310 -0.446689
-0.03872159 0.26031616 -0.42255682 -0.894688 0.001310 -0.446689
-0.35687470 0.45342407 0.21374941 -0.894688 0.001310 -0.446689
-0.13266344 0.36245289 -0.23467311 -0.894688 0.001310 -0.446689
-0.22683842 0.48360479 -0.04632315 -0.894688 0.001310 -0.446689
-0.10514496 0.30740598 -0.28971007 -0.894688 0.001310 -0.446689
-0.17370173 0.36800915 -0.15259653 -0.894688 0.001310 -0.446689
-0.12740354 0.31587249 -0.24519292 -0.894688 0.001310 -0.446689
-0.29582396 0.31805176 0.09164792 -0.894688 0.001310 -0.446689
-0.05227728 0.25422892 -0.39544544 -0.894688 0.001310 -0.446689
-0.14936359 0.41906190 -0.20127282 -0.894688 0.001310 -0.446689
-0.06474512 0.32710379 -0.37050974 -0.894688 0.001310 -0.446689
-0.25494266 0.42845598 0.00988531 -0.894688 0.001310 -0.446689
-0.07435351 0.22212735 -0.35129297 -0.894688 0.001310 -0.446689
-0.02861764 0.20948249 -0.44276473 -0.894688 0.001310 -0.446689
-0.07940201 0.27611962 -0.34119597 -0.894688 0.001310 -0.446689
-0.24683605 0.27836728 -0.00632790 -0.894688 0.001310 -0.446689
-0.06341740 0.31869489 -0.37316519 -0.894688 0.001310 -0.446689
-0.30590579 0.41106468 0.11181158 -0.894688 0.001310 -0.446689
-0.03005752 0.30382043 -0.43988496 -0.894688 0.001310 -0.446689
-0.20878562 0.34050936 -0.08242875 -0.894688 0.001310 -0.446689
-0.02922426 0.24867952 -0.44155148 -0.894688 0.001310 -0.446689
-0.03867959 0.28800583 -0.42264080 -0.894688 0.001310 -0.446689
-0.10456388 0.34966272 -0.29087225 -0.894688 0.001310 -0.446689
-0.17903286 0.28691104 -0.14193428 -0.894688 0.001310 -0.446689
-0.22078693 0.46717459 -0.05842614 -0.894688 0.001310 -0.446689
-0.08243596 0.33264160 -0.33512807 -0.894688 0.001310 -0.446689
-0.16029686 0.20618248 -0.17940629 -0.894688 0.001310 -0.446689
-0.05707056 0.30264199 -0.38585886 -0.894688 0.001310 -0.446689
-0.11981370 0.32563171 -0.26037261 -0.894688 0.001310 -0.446689
-0.03975372 0.21409902 -0.42049256 -0.894688 0.001310 -0.446689
-0.08182140 0.13460463 -0.33635721 -0.894688 0.001310 -0.446689
-0.17838387 0.37278292 -0.14323226 -0.894688 0.001310 -0.446689
-0.25978750 0.33443412 0.01957500 -0.894688 0.001310 -0.446689
-0.06838285 0.10069424 -0.36323428 -0.894688 0.001310 -0.446689
-0.29991761 0.37008035 0.09983522 -0.894688 0.001310 -0.446689
-0.14397912 0.48845667 -0.21204177 -0.894688 0.001310 -0.446689
-0.16097862 0.32679790 -0.17804277 -0.894688 0.001310 -0.446689
-0.34027424 0.40992501 0.18054849 -0.894688 0.001310 -0.446689
-0.20399085 0.28069997 -0.09201831 -0.894688 0.001310 -0.446689
-0.21995783 0.25922060 -0.06008434 -0.894688 0.001310 -0.446689
-0.37602741 0.38059920 0.25205481 -0.894688 0.001310 -0.446689
-0.11062760 0.39103249 -0.27874482 -0.894688 0.001310 -0.446689
-0.38423681 0.40555042 0.26847363 -0.894688 0.001310 -0.446689
-0.08774535 0.18742150 -0.32450932 -0.894688 0.001310 -0.446689
-0.17497441 0.27700245 -0.15005118 -0.894688 0.001310 -0.446689
-0.30592343 0.49473506 0.11184686 -0.894688 0.001310 -0.446689
-0.04272572 0.16637966 -0.41454858 -0.894688 0.001310 -0.446689
-0.36701271 0.46024808 0.23402542 -0.894688 0.001310 -0.446689
-0.17757933 0.22031173 -0.14484134 -0.894688 0.001310 -0.446689
-0.25268275 0.28282481 0.00536549 -0.894688 0.001310 -0.446689
-0.27349678 0.35288775 0.04699355 -0.894688 0.001310 -0.446689
-0.13375337 0.26526296 -0.23249325 -0.894688 0.001310 -0.446689
-0.35313767 0.46270120 0.20627534 -0.894688 0.001310 -0.446689
-0.23822923 0.41183811 -0.02354154 -0.894688 0.001310 -0.446689
-0.16532268 0.35484874 -0.16935465 -0.894688 0.001310 -0.446689
-0.12008739 0.36418194 -0.25982523 -0.894688 0.001310 -0.446689
-0.10707021 0.40121976 -0.28585958 -0.894688 0.001310 -0.446689
-0.05544772 0.25684452 -0.38910455 -0.894688 0.001310 -0.446689
-0.14268066 0.26082698 -0.21463868 -0.894688 0.001310 -0.446689
-0.34858528 0.49879780 0.19717056 -0.894688 0.001310 -0.446689
-0.32689700 0.49525189 0.15379399 -0.894688 0.001310 -0.446689
-0.35161322 0.35879481 0.20322645 -0.894688 0.001310 -0.446689
-0.43646464 0.44722927 0.37292928 -0.894688 0.001310 -0.446689
-0.45738909 0.49869218 0.41477817 -0.894688 0.001310 -0.446689
-0.02851701 0.38692442 -0.44296598 -0.894688 0.001310 -0.446689
-0.12483843 0.32977438 -0.25032312 -0.894688 0.001310 -0.446689
-0.14731513 0.45528626 -0.20536974 -0.894688 0.001310 -0.446689
-0.35193884 0.41505349 0.20387769 -0.894688 0.001310 -0.446689
-0.11226355 0.48683667 -0.27547291 -0.894688 0.001310 -0.446689
-0.18227020 0.24250612 -0.13545960 -0.894688 0.001310 -0.446689
-0.06479272 0.46097052 -0.37041456 -0.894688 0.001310 -0.446689
-0.43694612 0.47584906 0.37389225 -0.894688 0.001310 -0.446689
-0.15417400 0.28454679 -0.19165200 -0.894688 0.001310 -0.446689
-0.00307291 0.44673762 -0.49385419 -0.894688 0.001310 -0.446689
-0.23401432 0.31580228 -0.03197137 -0.894688 0.001310 -0.446689
-0.15213899 0.20229438 -0.19572201 -0.894688 0.001310 -0.446689
-0.03001460 0.24302742 -0.43997079 -0.894688 0.001310 -0.446689
-0.07195827 0.47681931 -0.35608345 -0.894688 0.001310 -0.446689
-0.19300956 0.24188027 -0.11398089 -0.894688 0.001310 -0.446689
-0.39987916 0.40789115 0.29975832 -0.894688 0.001310 -0.446689
-0.04281791 0.39969638 -0.41436419 -0.894688 0.001310 -0.446689
-0.19445822 0.41779467 -0.11108357 -0.894688 0.001310 -0.446689
-0.06273257 0.36200196 -0.37453485 -0.894688 0.001310 -0.446689
-0.13991223 0.46750137 -0.22017553 -0.894688 0.001310 -0.446689
-0.25852734 0.31618315 0.01705468 -0.894688 0.001310 -0.446689
-0.04458768 0.12131691 -0.41082466 -0.894688 0.001310 -0.446689
-0.26417837 0.27479059 0.02835673 -0.894688 0.001310 -0.446689
-0.23904665 0.40047440 -0.02190670 -0.894688 0.001310 -0.446689
-0.22952719 0.39301559 -0.04094562 -0.894688 0.001310 -0.446689
-0.24693170 0.36582670 -0.00613660 -0.894688 0.001310 -0.446689
-0.02987013 0.25371256 -0.44025972 -0.894688 0.001310 -0.446689
-0.37459096 0.38887385 0.24918193 -0.894688 0.001310 -0.446689
-0.26272470 0.29993638 0.02544940 -0.894688 0.001310 -0.446689
-0.17382553 0.34482396 -0.15234894 -0.894688 0.001310 -0.446689
-0.17435972 0.47381163 -0.15128055 -0.894688 0.001310 -0.446689
-0.00901385 0.40791240 -0.48197231 -0.894688 0.001310 -0.446689
-0.35592875 0.47071794 0.21185750 -0.894688 0.001310 -0.446689
-0.10552213 0.36987764 -0.28895575 -0.894688 0.001310 -0.446689
-0.11370597 0.19350809 -0.27258807 -0.894688 0.001310 -0.446689
-0.18010093 0.26679587 -0.13979813 -0.894688 0.001310 -0.446689
-0.16811679 0.27597910 -0.16376641 -0.894688 0.001310 -0.446689
-0.18631732 0.46020043 -0.12736535 -0.894688 0.001310 -0.446689
-0.18627071 0.21331137 -0.12745857 -0.894688 0.001310 -0.446689
-0.12288558 0.48865208 -0.25422883 -0.894688 0.001310 -0.446689
-0.08272112 0.17932653 -0.33455777 -0.894688 0.001310 -0.446689
-0.22585511 0.33012849 -0.04828978 -0.894688 0.001310 -0.446689
-0.08445051 0.12704864 -0.33109897 -0.894688 0.001310 -0.446689
-0.28641587 0.30957502 0.07283175 -0.894688 0.001310 -0.446689
-0.24654594 0.38336468 -0.00690812 -0.894688 0.001310 -0.446689
-0.00441278 0.29066110 -0.49117443 -0.894688 0.001310 -0.446689
-0.28853324 0.41558522 0.07706648 -0.894688 0.001310 -0.446689
-0.23261240 0.43913651 -0.03477520 -0.894688 0.001310 -0.446689
-0.02141966 0.30503249 -0.45716068 -0.894688 0.001310 -0.446689
-0.05748628 0.29152024 -0.38502744 -0.894688 0.001310 -0.446689
-0.19076845 0.40594211 -0.11846310 -0.894688 0.001310 -0.446689
-0.39807403 0.47101870 0.29614806 -0.894688 0.001310 -0.446689
-0.03368210 0.29630435 -0.43263578 -0.894688 0.001310 -0.446689
-0.37447897 0.45265687 0.24895793 -0.894688 0.001310 -0.446689
-0.41660610 0.44335145 0.33321220 -0.894688 0.001310 -0.446689
-0.09168186 0.18925399 -0.31663626 -0.894688 0.001310 -0.446689
-0.19418703 0.36618531 -0.11162594 -0.894688 0.001310 -0.446689
-0.08008143 0.11024114 -0.33983713 -0.894688 0.001310 -0.446689
-0.16026673 0.36630404 -0.17946655 -0.894688 0.001310 -0.446689
-0.14554822 0.20661515 -0.20890355 -0.894688 0.001310 -0.446689
-0.41789365 0.44182709 0.33578730 -0.894688 0.001310 -0.446689
-0.24145199 0.26844668 -0.01709601 -0.894688 0.001310 -0.446689
-0.07230421 0.22570959 -0.35539156 -0.894688 0.001310 -0.446689
-0.26598597 0.48288801 0.03197193 -0.894688 0.001310 -0.446689
-0.03103040 0.38851544 -0.43793920 -0.894688 0.001310 -0.446689
-0.02572150 0.43607163 -0.44855702 -0.894688 0.001310 -0.446689
-0.00502400 0.18024275 -0.48995200 -0.894688 0.001310 -0.446689
-0.21813603 0.46720171 -0.06372795 -0.894688 0.001310 -0.446689
-0.02274032 0.34823853 -0.45451936 -0.894688 0.001310 -0.446689
-0.08133236 0.10323611 -0.33733529 -0.894688 0.001310 -0.446689
-0.01679089 0.26990199 -0.46641821 -0.894688 0.001310 -0.446689
-0.06525657 0.46249512 -0.36948687 -0.894688 0.001310 -0.446689
-0.07737045 0.16417870 -0.34525910 -0.894688 0.001310 -0.446689
-0.02820470 0.28676561 -0.44359061 -0.894688 0.001310 -0.446689
-0.19533147 0.36140832 -0.10933706 -0.894688 0.001310 -0.446689
-0.33011571 0.40610838 0.16023141 -0.894688 0.001310 -0.446689
-0.31422314 0.42365405 0.12844628 -0.894688 0.001310 -0.446689
-0.00921502 0.06605968 -0.48156998 -0.894688 0.001310 -0.446689
-0.02514648 0.40049779 -0.44970703 -0.894688 0.001310 -0.446689
-0.17922488 0.46757320 -0.14155024 -0.894688 0.001310 -0.446689
-0.14724839 0.23055667 -0.20550323 -0.894688 0.001310 -0.446689
-0.11087356 0.15804175 -0.27825290 -0.894688 0.001310 -0.446689
-0.05170694 0.09279248 -0.39658612 -0.894688 0.001310 -0.446689
-0.23314483 0.28080869 -0.03371033 -0.894688 0.001310 -0.446689
-0.29303738 0.44306681 0.08607477 -0.894688 0.001310 -0.446689
-0.16815028 0.42061919 -0.16369945 -0.894688 0.001310 -0.446689
-0.10279977 0.24978322 -0.29440045 -0.894688 0.001310 -0.446689
-0.01703678 0.10147575 -0.46592644 -0.894688 0.001310 -0.446689
-0.19232294 0.28933764 -0.11535412 -0.894688 0.001310 -0.446689
-0.37450624 0.41984582 0.24901247 -0.894688 0.001310 -0.446689
-0.16034430 0.33616710 -0.17931139 -0.894688 0.001310 -0.446689
-0.22188625 0.43706346 -0.05622751 -0.894688 0.001310 -0.446689
-0.06970800 0.21547723 -0.36058399 -0.894688 0.001310 -0.446689
-0.24567878 0.25908488 -0.00864244 -0.894688 0.001310 -0.446689
-0.03566796 0.20712212 -0.42866409 -0.894688 0.001310 -0.446689
-0.01434275 0.43436861 -0.47131449 -0.894688 0.001310 -0.446689
-0.04881170 0.24111265 -0.40237659 -0.894688 0.001310 -0.446689
-0.35231334 0.45190147 0.20462668 -0.894688 0.001310 -0.446689
-0.05811003 0.19089040 -0.38377994 -0.894688 0.001310 -0.446689
-0.02987130 0.20086396 -0.44025740 -0.894688 0.001310 -0.446689
-0.05345503 0.29798204 -0.39308995 -0.894688 0.001310 -0.446689
-0.13335265 0.38145569 -0.23329470 -0.894688 0.001310 -0.446689
-0.25547844 0.41521934 0.01095688 -0.894688 0.001310 -0.446689
-0.39578921 0.40251118 0.29157841 -0.894688 0.001310 -0.446689
-0.36791492 0.40543163 0.23582983 -0.894688 0.001310 -0.446689
-0.24863438 0.45893067 -0.00273123 -0.894688 0.001310 -0.446689
-0.22559495 0.46644717 -0.04881009 -0.894688 0.001310 -0.446689
-0.22019556 0.30743867 -0.05960888 -0.894688 0.001310 -0.446689
-0.22460432 0.40825301 -0.05079135 -0.894688 0.001310 -0.446689
-0.38026157 0.46942171 0.26052314 -0.894688 0.001310 -0.446689
-0.12842563 0.23176536 -0.24314874 -0.894688 0.001310 -0.446689
-0.09166153 0.33343557 -0.31667694 -0.894688 0.001310 -0.446689
-0.12263283 0.36707783 -0.25473434 -0.894688 0.001310 -0.446689
-0.14082603 0.37133002 -0.21834794 -0.894688 0.001310 -0.446689
-0.12473802 0.38099992 -0.25052395 -0.894688 0.001310 -0.446689
-0.05830247 0.40470356 -0.38339505 -0.894688 0.001310 -0.446689
-0.22525449 0.32250249 -0.04949102 -0.894688 0.001310 -0.446689
-0.15047725 0.30607849 -0.19904551 -0.894688 0.001310 -0.446689
-0.07146825 0.22423276 -0.35706350 -0.894688 0.001310 -0.446689
-0.15613522 0.23473287 -0.18772957 -0.894688 0.001310 -0.446689
-0.26658151 0.36337090 0.03316301 -0.894688 0.001310 -0.446689
-0.11596128 0.30638349 -0.26807743 -0.894688 0.001310 -0.446689
-0.26233324 0.32687032 0.02466649 -0.894688 0.001310 -0.446689
-0.23699638 0.37679392 -0.02600724 -0.894688 0.001310 -0.446689
-0.04163454 0.09471995 -0.41673094 -0.894688 0.001310 -0.446689
-0.08048929 0.24501613 -0.33902141 -0.894688 0.001310 -0.446689
-0.34995383 0.41024730 0.19990766 -0.894688 0.001310 -0.446689
-0.08380027 0.24133429 -0.33239946 -0.894688 0.001310 -0.446689
-0.06848831 0.24883494 -0.36302340 -0.894688 0.001310 -0.446689
-0.04861112 0.22733617 -0.40277776 -0.894688 0.001310 -0.446689
-0.19391347 0.41136277 -0.11217305 -0.894688 0.001310 -0.446689
-0.17920469 0.42687434 -0.14159063 -0.894688 0.001310 -0.446689
-0.29589269 0.43220007 0.09178537 -0.894688 0.001310 -0.446689
-0.33346879 0.35261685 0.16693759 -0.894688 0.001310 -0.446689
-0.21740226 0.46656188 -0.06519547 -0.894688 0.001310 -0.446689
-0.03198073 0.33749425 -0.43603855 -0.894688 0.001310 -0.446689
-0.11410234 0.49275830 -0.27179533 -0.894688 0.001310 -0.446689
-0.07631508 0.24226061 -0.34736985 -0.894688 0.001310 -0.446689
-0.00718641 0.21035382 -0.48562717 -0.894688 0.001310 -0.446689
-0.17421986 0.47190684 -0.15156028 -0.894688 0.001310 -0.446689
-0.29383653 0.38311744 0.08767307 -0.894688 0.001310 -0.446689
-0.28408706 0.38681448 0.06817412 -0.894688 0.001310 -0.446689
-0.22600520 0.33528292 -0.04798961 -0.894688 0.001310 -0.446689
-0.33208773 0.38545245 0.16417545 -0.894688 0.001310 -0.446689
-0.14707382 0.22346660 -0.20585236 -0.894688 0.001310 -0.446689
-0.25300485 0.38750261 0.00600970 -0.894688 0.001310 -0.446689
-0.31539372 0.39288536 0.13078743 -0.894688 0.001310 -0.446689
-0.25708422 0.33541340 0.01416844 -0.894688 0.001310 -0.446689
-0.21206638 0.21993166 -0.07586724 -0.894688 0.001310 -0.446689
-0.26971290 0.49250472 0.03942579 -0.894688 0.001310 -0.446689
-0.22236444 0.36280695 -0.05527112 -0.894688 0.001310 -0.446689
-0.27722493 0.36272258 0.05444986 -0.894688 0.001310 -0.446689
-0.33291650 0.36639613 0.16583300 -0.894688 0.001310 -0.446689
-0.27579480 0.46863717 0.05158961 -0.894688 0.001310 -0.446689
-0.12499461 0.43646681 -0.25001079 -0.894688 0.001310 -0.446689
-0.36253732 0.40088397 0.22507465 -0.894688 0.001310 -0.446689
-0.09455168 0.36086613 -0.31089664 -0.894688 0.001310 -0.446689
-0.09251917 0.18920013 -0.31496167 -0.894688 0.001310 -0.446689
-0.15189601 0.29754108 -0.19620797 -0.894688 0.001310 -0.446689
-0.00236854 0.02245989 -0.49526292 -0.894688 0.001310 -0.446689
-0.25489879 0.46701783 0.00979757 -0.894688 0.001310 -0.446689
-0.18333933 0.45779148 -0.13332134 -0.894688 0.001310 -0.446689
-0.08799563 0.42585376 -0.32400876 -0.894688 0.001310 -0.446689
-0.17842072 0.31161958 -0.14315856 -0.894688 0.001310 -0.446689
-0.48667288 0.49284071 0.47334576 -0.894688 0.001310 -0.446689
-0.23275930 0.45446858 -0.03448141 -0.894688 0.001310 -0.446689
-0.09414508 0.15543064 -0.31170982 -0.894688 0.001310 -0.446689
-0.36811379 0.41225451 0.23622757 -0.894688 0.001310 -0.446689
-0.33796442 0.39344773 0.17592883 -0.894688 0.001310 -0.446689
-0.20243417 0.40353847 -0.09513167 -0.894688 0.001310 -0.446689
-0.25998649 0.35772705 0.01997298 -0.894688 0.001310 -0.446689
-0.04017846 0.40614134 -0.41964307 -0.894688 0.001310 -0.446689
-0.15778802 0.43846232 -0.18442395 -0.894688 0.001310 -0.446689
-0.39342493 0.43942839 0.28684986 -0.894688 0.001310 -0.446689
-0.06771784 0.20905405 -0.36456430 -0.894688 0.001310 -0.446689
-0.13965927 0.32550842 -0.22068146 -0.894688 0.001310 -0.446689
-0.34921417 0.42352512 0.19842833 -0.894688 0.001310 -0.446689
-0.31022960 0.40387532 0.12045920 -0.894688 0.001310 -0.446689
-0.31237015 0.49069950 0.12474030 -0.894688 0.001310 -0.446689
-0.18647085 0.19874486 -0.12705830 -0.894688 0.001310 -0.446689
-0.35180894 0.39508706 0.20361787 -0.894688 0.001310 -0.446689
-0.15684482 0.39022601 -0.18631035 -0.894688 0.001310 -0.446689
-0.07900994 0.38709119 -0.34198010 -0.894688 0.001310 -0.446689
-0.09938776 0.28398114 -0.30122447 -0.894688 0.001310 -0.446689
-0.16812485 0.48686349 -0.16375029 -0.894688 0.001310 -0.446689
-0.12779377 0.34479436 -0.24441245 -0.894688 0.001310 -0.446689
-0.07531355 0.27186596 -0.34937292 -0.894688 0.001310 -0.446689
-0.12078855 0.40674132 -0.25842291 -0.894688 0.001310 -0.446689
-0.06149698 0.37106863 -0.37700602 -0.894688 0.001310 -0.446689
-0.09452355 0.11235794 -0.31095290 -0.894688 0.001310 -0.446689
-0.11989317 0.26247787 -0.26021367 -0.894688 0.001310 -0.446689
-0.12951720 0.46131563 -0.24096560 -0.894688 0.001310 -0.446689
-0.08076200 0.09662807 -0.33847600 -0.894688 0.001310 -0.446689
-0.01856530 0.36775047 -0.46286941 -0.894688 0.001310 -0.446689
-0.02529714 0.14304632 -0.44940573 -0.894688 0.001310 -0.446689
-0.32694250 0.48900610 0.15388501 -0.894688 0.001310 -0.446689
-0.13770697 0.15228537 -0.22458607 -0.894688 0.001310 -0.446689
-0.00477221 0.43503898 -0.49045557 -0.894688 0.001310 -0.446689
-0.24639226 0.39660996 -0.00721547 -0.894688 0.001310 -0.446689
-0.00906523 0.21066794 -0.48186955 -0.894688 0.001310 -0.446689
-0.08197786 0.13640594 -0.33604428 -0.894688 0.001310 -0.446689
-0.21664810 0.48508358 -0.06670380 -0.894688 0.001310 -0.446689
-0.00101108 0.48597857 -0.49797785 -0.894688 0.001310 -0.446689
-0.21726076 0.23537859 -0.06547847 -0.894688 0.001310 -0.446689
-0.19953397 0.24743721 -0.10093206 -0.894688 0.001310 -0.446689
-0.21764041 0.36717951 -0.06471917 -0.894688 0.001310 -0.446689
-0.07733247 0.49922788 -0.34533507 -0.894688 0.001310 -0.446689
-0.45442808 0.46948794 0.40885615 -0.894688 0.001310 -0.446689
-0.19960186 0.20578980 -0.10079628 -0.894688 0.001310 -0.446689
-0.11216918 0.18417743 -0.27566165 -0.894688 0.001310 -0.446689
-0.36458936 0.46548533 0.22917873 -0.894688 0.001310 -0.446689
-0.25969276 0.37043053 0.01938552 -0.894688 0.001310 -0.446689
-0.08936871 0.18009150 -0.32126260 -0.894688 0.001310 -0.446689
-0.09392221 0.37390468 -0.31215560 -0.894688 0.001310 -0.446689
-0.41140088 0.47995141 0.32280177 -0.894688 0.001310 -0.446689
-0.00765253 0.34090084 -0.48469493 -0.894688 0.001310 -0.446689
-0.04313703 0.34803998 -0.41372594 -0.894688 0.001310 -0.446689
-0.27615994 0.38265708 0.05231988 -0.894688 0.001310 -0.446689
-0.06377483 0.38024032 -0.37245035 -0.894688 0.001310 -0.446689
-0.32823321 0.43321639 0.15646642 -0.894688 0.001310 -0.446689
-0.36920744 0.44682431 0.23841488 -0.894688 0.001310 -0.446689
-0.35708261 0.48714831 0.21416521 -0.894688 0.001310 -0.446689
-0.09212948 0.20880815 -0.31574106 -0.894688 0.001310 -0.446689
-0.29110047 0.34103933 0.08220094 -0.894688 0.001310 -0.446689
-0.10298777 0.10697955 -0.29402447 -0.894688 0.001310 -0.446689
